0,0,0,0,0,0,0,0,0,0,0,0,0,0,0,0,202,202,202,202,202,202,202,202,202,202,202,202,202,202,202,203,203,0,0,0,0,0,204,204,205,205,205,205,205,205,205,205,205,205,206,206,206,206,206,206,206,206,206,206,206,206,206,206,207,207,207,207,207,207,207,207,207,0,0,0,0,0,208,208,208,208,208,208,208,208,208,208,208,208,208,209,209,209,209,209,209,209,209,209,209,209,209,209,209,209,210,210,210,210,210,210,210,210,211,211,211,211,211,212,212,212,212,212,212,212,213,213,213,213,213,213,213,213,213,213,213,214,214,214,214,214,215,215,215,216,216,216,217,218,218,218,219,219,220,0,0,0,0,0,224,224,224,224,225,225,225,226,227,227,228,0,230,230,231,231,0,0,0,234,234,235,235,235,235,235,236,236,236,237,237,237,238,238,239,239,239,240,241,241,241,241,241,242,242,242,242,242,242,242,242,242,243,243,243,243,242,242,242,242,242,242,242,241,241,241,241,240,240,240,240,239,239,239,239,239,238,238,237,237,237,236,236,235,235,235,234,234,234,234,234,233,233,233,232,232,232,232,232,232,232,232,232,232,232,232,232,232,232,232,232,232,232,232,232,232,232,232,232,232,231,231,231,231,231,231,231,230,230,230,230,230,231,231,231,231,231,231,231,232,232,232,232,232,232,232,232,232,232,232,232,232,232,232,232,232,232,232,232,232,232,232,232,232,232,232,232,232,232,232,231,231,231,231,231,231,231,231,231,231,232,232,232,232,232,232,232,232,232,232,232,232,232,232,232,232,232,232,232,232,232,232,232,232,232,232,232,232,232,233,233,233,233,233,233,234,234,234,234,234,234,235,235,235,235,235,235,235,235,235,235,235,235,235,235,235,235,235,235,235,235,235,235,235,235,235,235,235,235,235,236,236,236,236,236,236,237,237,237,237,237,238,238,238,238,238,239,239,239,239,240,240,240,241,241,241,242,242,242,242,242,242,242,243,243,243,243,243,243,244,244,244,244,244,244,244,244,244,244,244,244,244,244,244,244,244,244,244,244,244,245,245,244,244,244,244,244,244,244,244,244,244,244,244,245,245,245,245,245,245,246,246,246,246,246,247,247,247,247,247,247,247,247,247,247,247,248,248,248,248,248,248,248,248,249,249,249,249,249,249,249,249,249,249,249,249,249,249,250,250,250,250,250,250,250,250,250,250,250,250,250,250,250,250,250,250,250,249,249,249,249,249,249,249,249,249,249,249,249,249,249,249,249,249,249,249,249,249,249,249,249,249,248,248,248,248,248,248,248,248,248,247,247,247,247,247,247,247,247,246,246,246,246,246,246,246,246,246,0,0,0,0,0,0,244,244,244,243,243,243,242,242,242,242,242,241,241,241,241,241,241,241,241,241,241,241,241,240,240,240,240,240,240,240,240,240,240,240,240,240
0,0,0,0,0,0,0,0,0,0,0,0,0,0,0,0,202,202,202,202,202,202,202,202,202,202,202,0,0,202,202,203,203,203,203,203,204,204,204,204,205,205,205,205,205,205,205,205,205,205,206,206,206,206,206,206,206,206,206,206,206,206,206,206,207,207,207,207,207,207,207,207,207,0,0,0,0,0,208,208,208,208,208,208,208,208,208,208,208,208,208,209,209,209,209,209,209,209,209,209,209,209,209,209,209,209,210,210,210,210,210,210,210,210,211,211,211,211,211,212,212,212,212,212,212,212,213,213,213,213,213,213,213,213,213,213,213,214,214,214,214,214,215,215,215,216,216,216,217,218,218,218,219,219,220,0,0,0,0,0,224,224,224,224,224,224,225,226,227,227,228,228,228,229,230,230,231,232,232,232,233,233,234,234,234,235,235,235,236,237,237,237,238,238,238,239,239,240,240,240,241,241,241,242,242,242,242,242,242,242,242,242,243,243,243,243,242,242,242,242,242,242,242,241,241,241,241,240,240,240,240,239,239,239,239,239,238,238,237,237,237,236,236,236,235,235,235,235,234,234,234,233,233,233,233,233,232,232,232,232,232,232,232,232,232,232,232,232,232,232,232,232,232,232,232,232,232,232,232,231,231,231,231,231,231,231,231,231,230,230,230,231,231,231,231,231,231,231,231,232,232,232,232,232,232,232,232,232,232,232,232,232,232,232,232,232,232,232,232,232,232,232,232,232,232,232,232,232,232,232,232,232,232,232,232,232,232,232,232,232,232,232,232,232,232,232,232,232,232,232,232,232,232,232,232,232,232,232,232,232,232,232,232,232,232,232,233,233,233,233,233,233,233,233,233,234,234,234,234,234,234,235,235,235,235,235,235,235,235,235,235,235,235,235,235,235,235,235,235,235,235,235,235,235,235,235,235,235,235,235,236,236,236,236,236,236,237,237,237,237,237,238,238,238,238,238,239,239,239,239,240,240,240,241,241,241,242,242,242,242,242,242,242,243,243,243,243,243,243,244,244,244,244,244,244,244,244,244,244,244,244,244,244,244,244,244,244,244,244,244,244,245,244,244,244,244,244,244,244,244,244,244,244,244,244,244,245,245,245,245,245,245,246,246,246,247,247,247,247,247,247,247,247,247,247,248,248,248,248,248,248,248,249,249,249,249,249,249,249,249,249,249,249,249,249,249,249,250,250,250,250,250,250,250,250,250,250,250,250,250,250,250,250,250,250,250,250,249,249,249,249,249,249,249,249,249,249,249,249,249,249,249,249,249,249,249,249,249,249,249,249,249,248,248,248,248,248,248,248,248,248,247,247,247,247,247,247,247,247,246,246,246,246,246,246,246,246,246,0,0,0,0,0,0,244,244,244,243,243,243,242,242,242,242,242,241,241,241,241,241,241,241,241,241,241,241,241,240,240,240,240,240,240,240,240,240,240,240,240,240
0,0,0,0,0,0,0,0,0,0,0,0,0,0,0,0,202,202,202,202,202,202,202,202,202,0,0,0,0,0,0,0,0,203,203,203,204,204,204,204,205,205,205,205,205,205,205,205,205,205,206,206,206,206,206,206,206,206,206,206,206,206,206,206,207,207,207,207,207,207,207,207,207,0,0,0,0,0,208,208,208,208,208,208,208,208,208,208,208,208,208,209,209,209,209,209,209,209,209,209,209,209,209,209,209,209,209,209,210,210,210,210,210,210,211,211,211,211,211,211,212,212,212,212,212,212,212,212,212,212,213,213,213,213,213,213,213,214,214,214,214,214,215,215,215,216,216,216,217,217,217,218,219,219,219,220,220,221,221,221,222,223,223,223,223,223,224,0,225,225,227,227,227,228,228,229,231,231,231,232,232,232,233,233,233,234,235,235,236,236,236,237,237,237,238,239,239,240,240,240,241,241,241,242,242,242,242,242,242,242,242,243,243,243,243,243,243,243,243,243,243,242,242,242,242,0,241,241,241,241,241,240,240,240,239,239,239,238,238,237,237,237,236,236,236,236,235,235,0,0,0,0,234,234,233,233,233,233,233,233,233,232,232,232,232,232,232,232,232,232,232,232,232,232,232,232,232,232,232,231,231,231,231,231,231,231,231,231,230,230,230,231,231,231,231,231,231,232,232,232,232,232,232,232,232,232,232,232,232,232,232,232,232,232,232,232,232,232,232,232,232,232,232,232,232,232,232,232,232,232,232,232,232,232,232,232,232,232,232,232,232,232,232,232,232,232,232,232,232,232,232,232,232,232,232,232,232,232,232,232,232,232,232,232,232,232,233,233,233,233,233,233,233,233,233,234,234,234,234,234,234,235,235,235,235,235,235,235,235,235,235,235,235,235,235,235,236,236,236,236,236,236,236,236,236,236,236,236,236,236,236,236,236,237,237,237,237,237,238,238,238,238,238,239,239,239,239,240,240,240,240,240,241,241,241,242,242,242,242,242,242,243,243,243,243,243,243,244,244,244,244,244,244,244,244,244,244,244,244,244,244,244,244,244,244,244,244,244,244,244,244,0,244,244,244,244,244,244,244,244,244,244,244,244,244,244,245,245,245,245,245,245,246,246,246,247,247,247,247,247,247,247,247,248,248,248,248,248,248,248,248,248,249,249,249,249,249,249,249,250,250,250,250,250,250,250,250,250,250,250,250,250,250,250,250,250,250,250,250,250,250,250,250,250,250,250,250,249,249,249,249,249,249,249,249,249,249,249,249,249,249,249,249,249,249,249,249,249,249,249,249,248,248,248,248,248,248,248,248,247,247,247,247,247,247,247,247,247,247,246,246,246,246,246,245,245,245,245,245,245,244,244,244,244,244,243,243,243,243,242,242,242,242,242,241,241,241,241,241,241,241,241,241,241,240,240,240,240,240,240,240,240,240,240,240,240,240,240,240,240
0,0,0,0,0,0,0,0,0,0,0,0,0,202,202,202,202,202,202,202,202,202,202,202,202,202,202,0,0,202,202,203,203,203,203,203,204,204,204,204,205,205,205,205,205,205,205,205,205,205,206,206,206,206,206,206,206,206,206,206,206,206,206,206,207,207,207,207,207,207,207,207,207,208,208,208,208,208,208,208,208,208,208,208,208,208,208,208,208,209,209,209,209,209,209,209,209,209,209,209,209,209,209,209,209,209,209,209,210,210,210,210,210,210,210,210,211,211,211,211,0,0,212,212,212,212,212,212,212,212,212,213,213,213,213,213,213,214,214,214,214,214,215,215,215,216,216,216,217,217,217,218,219,219,219,220,220,221,221,221,222,223,223,223,223,223,224,0,225,225,227,227,227,228,228,229,231,231,231,232,232,232,233,233,233,234,235,235,236,236,236,237,237,237,238,239,239,240,240,240,241,241,241,242,242,242,242,242,242,243,243,243,243,243,243,243,243,243,243,243,243,242,242,242,242,0,241,241,241,241,241,240,240,240,239,239,239,238,238,237,237,237,236,236,236,236,235,235,235,235,235,234,234,234,233,233,233,233,233,233,233,232,232,232,232,232,232,232,232,232,232,232,232,232,232,232,232,232,232,231,231,231,231,231,231,231,231,231,230,230,230,231,231,231,231,231,231,232,232,232,232,232,232,232,232,232,232,232,232,232,232,232,232,232,232,232,232,232,232,232,232,232,232,232,232,232,232,232,232,232,232,232,232,232,232,232,232,232,232,232,232,232,232,232,232,232,232,232,232,232,232,232,232,233,233,233,233,233,233,233,233,233,233,233,233,233,233,233,233,233,233,233,233,233,234,234,234,234,234,234,235,235,235,235,235,235,235,235,235,235,235,235,235,236,236,236,236,236,236,236,236,236,236,236,236,237,237,237,237,237,237,237,237,237,237,238,238,238,238,239,239,239,239,239,240,240,240,240,240,241,241,241,241,242,242,242,242,242,243,243,243,243,243,243,243,243,244,244,244,244,244,244,244,244,244,244,244,244,244,244,244,244,244,244,244,244,244,244,244,244,244,244,244,244,244,244,244,244,244,244,244,244,244,244,244,244,244,245,245,245,245,245,246,246,246,246,246,247,247,247,247,247,247,248,248,248,248,248,248,248,248,248,249,249,249,249,249,249,249,250,250,250,250,250,250,250,250,250,250,250,250,250,250,250,250,250,250,250,250,250,250,250,250,250,250,249,249,249,249,249,249,249,249,249,249,249,249,249,249,249,249,249,249,249,249,249,248,248,248,248,248,248,248,248,248,248,247,247,247,247,247,247,247,247,246,246,246,246,246,246,246,246,245,245,245,245,245,245,245,245,244,244,244,244,244,243,243,243,243,242,242,242,242,242,241,241,241,241,241,241,241,241,241,241,240,240,240,240,240,240,240,240,240,240,240,240,240,240,240,240
0,0,0,0,0,0,0,0,0,0,0,0,0,202,202,202,202,202,202,202,202,202,202,202,202,202,202,202,202,202,202,203,203,203,203,203,204,204,204,204,205,205,205,205,205,205,205,205,205,205,206,206,206,206,206,206,206,206,206,206,206,206,207,207,207,207,207,207,207,207,207,207,207,208,208,208,208,208,208,208,208,208,208,208,208,208,208,208,208,209,209,209,209,209,209,209,209,209,209,209,209,209,209,209,209,209,209,209,210,210,210,210,210,210,210,210,211,211,211,211,0,0,0,0,212,212,212,212,212,212,212,213,213,213,213,213,213,214,214,214,214,214,215,215,215,216,216,216,217,217,217,218,219,219,219,220,220,220,221,221,222,222,222,222,223,223,223,224,224,225,225,225,226,227,227,228,229,229,230,231,232,232,232,233,233,233,234,234,235,236,236,237,237,237,238,239,239,239,240,240,241,241,241,241,242,242,242,242,242,242,242,243,243,243,243,243,243,243,243,243,243,243,243,243,243,243,242,242,242,241,241,241,241,241,241,240,239,238,238,238,238,237,237,237,236,236,235,235,235,235,235,234,234,234,234,234,233,233,233,233,233,233,233,233,233,233,232,232,232,232,232,232,232,232,232,232,232,232,232,231,231,231,231,231,231,231,231,231,231,231,231,0,0,0,0,231,231,232,232,232,232,232,232,232,232,232,232,232,232,232,232,232,232,232,232,232,232,232,232,232,232,232,232,232,232,232,232,232,232,232,232,232,232,232,232,232,232,232,232,232,232,232,232,232,232,232,232,232,232,232,233,233,233,233,233,233,233,233,233,233,233,233,233,233,233,233,233,233,233,233,233,233,233,233,234,234,234,234,234,234,235,235,235,235,235,235,235,235,235,235,235,235,235,236,236,236,236,236,236,236,236,236,236,236,236,237,237,237,237,237,237,237,237,237,237,238,238,238,238,239,239,239,239,239,240,240,240,240,240,241,241,241,241,242,242,242,242,242,243,243,243,243,243,243,243,243,244,244,244,244,244,244,244,244,244,244,244,244,244,244,244,244,244,244,244,244,244,244,244,244,244,244,244,244,244,244,244,244,244,244,244,244,244,244,244,244,244,245,245,245,245,245,246,246,246,246,246,247,247,247,247,247,247,247,247,248,248,248,248,248,248,249,249,249,249,249,249,249,249,250,250,250,250,250,250,250,250,250,250,250,250,250,250,250,250,250,250,250,250,250,250,250,250,250,250,249,249,249,249,249,249,249,249,249,249,249,249,249,249,249,249,249,249,249,249,249,248,248,248,248,248,248,248,248,248,248,247,247,247,247,247,247,247,247,246,246,246,246,246,246,246,246,245,245,245,245,245,245,245,244,244,244,244,244,243,243,243,243,243,242,242,242,242,242,241,241,241,241,241,241,241,241,240,240,240,240,240,240,240,240,240,240,240,240,240,240,240,240,240,240
0,0,0,0,0,0,0,0,0,0,0,0,0,202,202,202,202,202,202,202,202,202,202,202,202,202,202,202,202,202,202,203,203,0,0,0,0,0,0,205,205,205,205,205,205,205,205,205,205,205,206,206,206,206,206,206,206,206,206,206,206,206,207,207,207,207,207,207,207,207,207,207,207,208,208,208,208,208,208,208,208,208,208,208,208,208,208,208,208,209,209,209,209,209,209,209,209,209,209,209,209,209,209,209,209,209,209,209,210,210,210,210,210,210,210,210,211,211,211,211,0,0,0,0,212,212,212,212,212,212,212,213,213,213,213,213,213,214,214,214,214,214,215,215,215,216,216,216,217,217,217,218,218,218,219,220,220,220,221,221,221,222,222,222,222,222,223,223,223,224,225,225,225,226,226,227,229,229,230,230,230,231,232,232,232,233,234,234,235,236,236,237,237,237,238,239,239,239,240,240,241,241,241,241,242,242,242,242,242,242,242,243,243,243,243,243,243,243,243,243,243,243,243,243,243,243,243,242,242,242,242,242,241,241,241,240,240,239,239,238,238,237,237,237,237,237,236,235,235,235,235,235,234,234,234,234,234,233,233,233,233,233,233,233,233,233,232,232,0,232,232,232,232,232,232,232,232,232,231,231,231,231,231,231,231,231,231,231,231,231,231,0,0,0,232,231,231,232,232,232,232,232,232,232,232,232,232,232,232,232,232,232,232,232,232,232,232,232,232,232,232,232,232,232,232,232,232,232,232,232,232,232,232,232,232,232,232,232,232,232,232,232,232,232,232,232,232,232,232,232,233,233,233,233,233,233,233,233,233,233,233,233,233,233,233,233,233,233,233,233,233,233,234,234,234,234,234,234,234,234,235,235,235,235,235,235,235,235,235,235,235,236,236,236,236,236,236,236,236,236,237,237,237,237,237,237,237,237,237,237,237,238,238,238,238,238,239,239,239,239,239,240,240,240,241,241,241,241,241,241,242,242,242,242,242,243,243,243,243,243,243,243,243,243,244,244,244,244,244,244,244,244,244,244,244,245,245,245,245,244,244,244,244,244,244,244,244,244,244,244,244,244,244,244,244,244,244,244,244,244,244,244,244,244,244,244,244,245,245,245,245,245,246,246,246,246,246,247,247,247,247,247,247,247,247,248,248,248,248,248,248,248,249,249,249,249,249,249,249,250,250,250,250,250,250,250,250,250,250,250,250,250,250,250,250,250,250,250,250,250,250,250,249,249,249,249,249,249,249,249,249,249,249,249,249,249,249,249,249,249,249,249,249,249,248,248,248,248,248,248,248,248,248,248,247,247,247,247,247,247,247,246,246,246,246,246,246,246,246,245,245,245,245,245,245,245,245,245,245,244,244,244,243,243,243,243,243,242,242,242,241,241,241,241,241,241,241,241,241,240,240,240,240,240,240,240,240,240,240,240,240,240,240,240,240,240,240,239,239,239
0,0,0,0,0,0,0,0,0,0,0,0,0,202,202,202,202,202,202,202,202,202,202,202,202,202,202,202,202,202,202,203,203,0,0,0,0,0,0,205,205,205,205,205,205,205,205,205,205,205,206,206,206,206,206,206,206,206,206,206,206,206,207,207,207,207,207,207,207,207,207,207,207,208,208,208,208,208,208,208,208,208,208,208,208,208,208,208,208,208,208,209,209,209,209,209,209,209,209,209,209,209,209,209,209,209,209,209,210,210,210,210,210,210,210,210,211,211,211,0,0,0,0,0,212,212,212,212,212,212,212,213,213,213,213,213,213,214,214,214,214,214,215,215,215,216,216,216,217,0,218,218,218,218,219,220,220,220,221,221,221,222,222,222,222,222,223,223,223,224,225,225,225,226,226,227,229,229,230,230,230,231,232,232,232,233,234,234,235,235,235,236,237,237,238,238,238,239,240,240,240,241,241,241,242,242,242,242,242,242,242,243,243,243,243,243,243,243,243,243,243,243,243,243,243,243,243,242,242,242,242,242,241,241,241,240,240,239,239,238,238,237,237,237,237,237,236,235,235,235,235,235,234,234,234,234,234,233,233,233,233,233,233,233,233,233,232,232,232,232,232,232,232,232,232,232,232,231,231,231,231,231,231,231,231,231,231,231,231,231,231,231,231,231,231,232,232,232,232,232,232,232,232,232,232,232,232,232,232,232,232,232,232,232,232,232,232,232,232,232,232,232,232,232,232,232,232,232,232,232,232,232,232,232,232,232,232,232,232,232,232,232,232,232,232,232,232,233,233,233,233,233,233,233,233,233,233,233,233,233,233,233,233,233,233,233,233,234,234,234,234,234,234,234,234,234,234,235,235,235,235,235,235,235,235,235,235,235,236,236,236,236,236,236,236,236,236,236,236,237,237,237,237,237,237,237,237,237,238,238,238,238,238,238,239,239,239,239,239,239,239,240,240,240,241,241,241,241,241,241,242,242,242,242,242,243,243,243,243,243,243,243,243,243,244,244,244,244,244,244,244,244,244,244,244,245,245,245,245,244,244,244,244,244,244,244,244,244,244,244,244,244,244,244,244,244,244,244,244,244,244,244,244,244,244,244,244,245,245,245,245,245,246,246,246,246,246,247,247,247,247,247,247,247,247,248,248,248,248,248,248,248,249,249,249,249,249,249,249,249,250,250,250,250,250,250,250,250,250,250,250,250,250,250,250,250,250,250,250,250,249,249,249,249,249,249,249,249,249,249,249,249,249,249,249,249,249,249,248,248,248,248,248,248,248,248,248,248,248,248,248,248,248,248,247,247,247,247,247,247,247,246,246,246,246,246,246,246,246,245,245,245,245,245,245,245,245,245,245,244,244,244,243,243,243,243,243,242,242,242,241,241,241,241,241,241,241,241,241,240,240,240,240,240,240,240,240,240,240,240,240,240,240,240,240,240,240,239,239,239
0,0,0,0,0,0,0,0,0,0,0,0,0,0,202,202,202,202,202,202,202,202,202,202,202,202,202,202,202,202,203,203,203,0,0,0,0,0,0,0,0,205,205,205,205,205,205,205,205,205,206,206,206,206,206,206,206,206,206,0,206,206,207,207,207,207,207,0,0,207,207,207,207,208,208,208,208,208,208,208,208,208,208,208,208,208,208,208,208,208,208,209,209,209,209,209,209,209,209,209,209,209,209,209,209,209,209,209,210,210,210,210,210,210,210,210,211,211,211,211,0,211,211,212,212,212,212,212,212,212,212,213,213,213,213,213,213,214,214,214,214,214,215,215,215,215,215,216,216,216,217,218,218,218,219,219,219,220,220,220,221,221,221,221,221,222,222,222,223,223,223,224,225,226,226,227,228,228,229,229,229,230,231,231,231,232,232,233,234,235,235,236,237,237,237,238,238,239,240,240,240,241,241,241,241,241,242,242,242,242,242,243,243,243,243,243,243,243,243,243,243,243,243,243,243,243,243,243,243,243,242,242,242,242,241,240,240,239,239,239,239,238,237,237,237,237,236,236,236,235,235,235,235,235,235,235,234,234,234,234,234,233,233,233,233,233,233,232,232,232,232,232,232,232,232,232,232,231,231,231,231,231,231,231,231,231,231,231,231,231,231,231,231,231,231,232,232,232,232,232,232,232,232,232,232,232,232,232,232,232,232,232,232,232,232,232,232,232,232,232,232,232,232,232,232,232,232,232,232,232,232,232,232,232,232,232,232,232,232,232,232,232,232,232,232,232,232,233,233,233,233,233,233,233,233,233,233,233,233,233,233,233,233,233,233,233,233,234,234,234,234,234,234,234,234,234,234,235,235,235,235,235,235,235,235,235,235,235,236,236,236,236,236,236,236,236,236,236,236,237,237,237,237,237,237,237,237,237,238,238,238,238,238,238,239,239,239,239,240,240,240,240,241,241,241,242,242,242,242,242,243,243,243,243,243,243,243,243,243,243,243,244,244,244,244,244,244,244,244,244,244,244,244,244,245,245,245,245,245,245,245,244,244,244,244,244,244,244,244,244,244,244,244,244,244,244,244,244,244,244,244,244,244,244,244,244,244,245,245,245,245,245,246,246,246,246,246,247,247,247,247,247,247,247,247,248,248,248,248,248,248,248,249,249,249,249,249,249,249,249,250,250,250,250,250,250,250,250,250,250,250,250,250,250,250,250,250,250,250,250,249,249,249,249,249,249,249,249,249,249,249,249,249,249,249,249,249,249,248,248,248,248,248,248,248,248,248,248,248,247,247,247,247,247,247,247,247,247,246,246,246,246,246,246,246,246,246,245,245,245,245,245,245,245,245,245,244,244,244,244,244,244,243,243,243,242,242,242,242,242,241,241,241,241,241,241,241,240,240,240,240,240,240,240,240,240,240,240,240,240,240,240,240,239,239,239,239,239,239,239
0,0,0,0,0,0,0,0,0,0,0,0,0,0,202,202,202,202,202,202,202,202,202,202,202,202,202,202,202,202,203,203,203,0,0,0,0,0,0,0,0,205,205,205,205,205,205,205,205,205,206,206,206,206,206,206,206,206,206,206,206,206,207,207,207,207,207,0,0,207,207,207,207,208,208,208,208,208,208,208,208,208,208,208,208,208,208,208,208,208,208,209,209,209,209,209,209,209,209,209,209,209,209,209,209,209,209,209,210,210,210,210,210,210,210,210,210,210,210,211,211,211,211,212,212,212,212,212,212,212,212,213,213,213,213,213,214,214,214,214,214,214,214,214,215,215,215,216,216,216,217,217,217,218,219,219,219,220,220,220,221,221,221,221,221,222,222,222,223,223,223,224,225,226,226,227,228,228,229,229,229,230,231,231,231,232,232,233,234,235,235,236,237,237,237,238,238,239,240,240,240,241,241,241,241,241,242,242,242,242,242,243,243,243,243,243,243,243,243,243,243,243,243,243,243,243,243,243,243,243,243,243,242,242,242,241,241,240,240,239,239,238,237,237,237,237,236,236,236,235,235,235,235,235,235,235,234,234,234,234,234,233,233,233,233,233,233,232,232,232,232,232,232,232,232,232,232,231,231,231,231,231,231,231,231,231,231,231,231,231,231,231,231,231,231,232,232,232,232,232,232,232,232,232,232,232,232,232,232,232,232,232,232,232,232,232,232,232,232,232,232,232,232,232,232,232,232,232,232,232,232,232,232,232,232,232,232,232,232,232,232,232,232,233,233,233,233,233,233,233,233,233,233,233,234,234,234,234,234,234,234,234,234,234,234,234,234,234,234,234,234,234,234,234,234,235,235,235,235,235,235,235,235,235,235,235,235,235,236,236,236,236,236,236,236,236,237,237,237,237,237,237,237,237,237,238,238,238,238,238,238,239,239,239,239,239,240,240,240,241,241,241,242,242,242,242,242,243,243,243,243,243,243,243,243,244,244,244,244,244,244,244,244,244,244,244,244,244,244,244,245,245,245,245,245,245,245,245,245,245,245,245,244,244,244,244,244,244,244,244,244,244,244,244,244,244,244,244,244,244,244,244,244,244,244,244,244,244,244,245,245,245,245,245,246,246,246,247,247,247,247,247,247,247,247,248,248,248,248,248,248,248,248,248,249,249,249,249,249,249,249,249,250,250,250,250,250,250,250,250,250,250,250,250,250,250,250,250,250,249,249,249,249,249,249,249,249,249,249,249,249,249,248,248,248,248,248,248,248,248,248,248,248,248,248,248,248,248,247,247,247,247,247,247,247,247,246,246,246,246,246,246,246,246,245,245,245,245,245,245,245,245,245,245,245,245,244,244,244,244,244,243,243,243,243,242,242,242,242,242,241,241,241,241,241,240,240,240,240,240,240,240,240,240,240,240,240,240,240,240,240,240,240,239,239,239,239,239,239,239
0,0,0,0,0,0,0,0,0,0,0,0,0,0,202,202,202,202,202,202,202,202,202,202,202,202,202,202,202,202,203,203,203,0,0,0,204,204,204,204,204,204,205,205,205,205,205,205,205,205,206,206,206,206,206,206,206,206,206,206,206,207,207,207,207,0,0,0,0,0,208,208,208,208,208,208,208,208,208,208,208,208,208,208,208,208,208,208,208,209,209,209,209,209,209,209,209,209,209,209,209,209,209,209,209,209,209,209,210,210,210,210,210,210,210,210,210,210,210,211,211,211,211,212,212,212,212,212,212,212,212,0,0,213,213,213,214,214,214,214,214,214,214,214,215,215,215,216,216,216,217,217,217,218,219,219,219,220,220,220,221,221,221,221,221,222,222,222,222,223,223,223,225,226,226,227,227,227,228,228,228,229,230,230,231,232,232,233,234,235,235,236,236,236,237,238,238,239,240,240,240,241,241,241,241,241,242,242,242,242,242,242,243,243,243,243,243,243,243,243,243,243,243,243,243,243,243,243,243,243,243,243,242,242,242,241,241,240,240,239,239,238,238,238,238,237,237,236,236,236,236,236,235,235,235,235,235,234,234,234,234,234,234,234,233,233,233,233,233,232,232,232,232,232,232,232,232,232,231,231,231,231,231,231,231,231,231,231,231,231,231,231,231,231,232,232,232,232,232,232,232,232,232,232,232,232,232,232,232,232,232,232,232,232,232,232,232,232,232,232,232,232,232,232,232,232,232,232,232,232,232,232,232,232,232,232,232,233,233,233,233,233,233,233,233,233,233,233,233,233,234,234,234,234,234,234,234,234,234,234,234,234,234,234,234,234,234,234,234,234,234,234,234,235,235,235,235,235,235,235,235,235,235,235,235,235,236,236,236,236,236,236,236,236,236,236,237,237,237,237,237,237,237,237,237,238,238,238,238,238,238,239,239,239,239,239,240,240,240,241,241,241,242,242,242,242,242,243,243,243,243,243,243,243,243,244,244,244,244,244,244,244,244,244,244,244,244,244,244,244,245,245,245,245,245,245,245,245,245,245,245,245,244,244,244,244,244,244,244,244,244,244,244,244,244,244,244,244,244,244,244,244,244,244,244,244,244,244,244,245,245,245,245,245,246,246,246,247,247,247,247,247,247,247,247,248,248,248,248,248,248,248,248,248,248,248,249,249,249,249,249,249,249,250,250,250,250,250,250,250,250,250,250,250,250,250,250,250,250,249,249,249,249,249,249,249,249,249,249,249,249,249,248,248,248,248,248,248,248,248,248,248,248,248,248,248,248,248,247,247,247,247,247,247,247,247,246,246,246,246,246,246,246,246,245,245,245,245,245,245,245,245,245,245,245,245,244,244,244,244,244,243,243,243,243,242,242,242,242,242,241,241,241,241,241,240,240,240,240,240,240,240,240,240,240,240,240,240,240,240,239,239,239,239,239,239,239,239,239,239
0,0,0,0,0,0,0,0,0,0,0,0,0,0,202,202,202,202,202,202,202,202,202,202,202,202,202,202,202,202,203,203,203,0,0,0,204,204,204,204,204,204,205,205,205,205,205,205,205,205,206,206,206,206,206,206,206,206,206,207,207,207,207,207,207,0,0,0,0,0,208,208,208,208,208,208,208,208,208,208,208,208,208,208,208,208,208,208,208,208,208,208,209,209,209,209,209,209,209,209,209,209,209,209,209,209,209,209,210,210,210,210,210,210,210,210,210,210,210,211,211,211,211,211,211,212,212,212,212,212,212,0,0,213,213,213,214,214,214,214,214,214,214,214,215,215,215,215,216,216,216,217,217,218,218,218,219,220,220,220,220,220,221,221,221,222,222,222,222,223,223,223,0,0,0,227,227,227,227,227,227,228,229,229,230,231,231,232,233,233,234,235,236,236,237,238,238,239,239,239,240,241,241,241,241,241,242,242,242,242,242,242,242,242,243,243,243,243,243,243,243,243,243,244,243,243,243,243,243,243,243,243,242,242,242,241,241,241,241,240,239,239,238,238,238,237,237,237,237,237,236,236,236,236,236,235,235,235,235,234,234,234,234,234,234,233,233,233,233,233,232,232,232,232,232,232,232,232,232,232,231,231,231,231,231,231,231,231,231,231,231,231,232,232,232,232,232,232,232,232,232,232,232,232,232,232,232,232,232,232,232,232,232,232,232,232,232,232,232,232,232,232,232,232,232,232,232,232,232,232,232,232,232,232,232,232,232,233,233,233,233,233,233,233,233,233,233,233,233,233,234,234,234,234,234,234,234,234,234,234,234,234,234,234,234,234,234,234,234,234,234,234,234,235,235,235,235,235,235,235,235,235,235,235,235,235,236,236,236,236,236,236,236,236,236,236,237,237,237,237,237,237,237,238,238,238,238,238,239,239,239,239,239,240,240,240,241,241,241,242,242,242,243,243,243,243,243,243,244,244,244,244,244,244,244,244,244,244,244,244,244,244,244,244,244,244,244,244,244,245,245,245,245,245,245,245,245,245,245,245,245,245,245,245,244,244,244,244,244,244,244,244,244,244,244,244,244,244,244,244,244,244,244,244,244,244,244,244,244,245,245,245,245,245,246,246,246,247,247,247,247,247,247,247,247,248,248,248,248,248,248,248,248,248,248,248,249,249,249,249,249,249,249,250,250,250,250,250,250,250,250,250,250,250,250,250,250,249,249,249,249,249,249,249,249,249,249,249,248,248,248,248,248,248,248,248,248,248,248,248,248,248,248,248,248,248,247,247,247,247,247,247,247,247,246,246,246,246,246,246,246,245,245,245,245,245,245,245,245,245,245,245,245,245,244,244,244,244,244,244,243,243,243,243,243,242,242,242,242,242,241,241,241,241,241,240,240,240,240,240,240,240,240,240,240,240,240,240,239,239,239,239,239,239,239,239,239,239,239,239
0,0,0,0,0,0,0,0,0,0,0,0,0,202,202,202,202,202,202,202,202,202,202,202,202,202,202,202,202,202,202,203,203,203,203,203,203,204,204,204,204,204,205,205,205,205,205,205,205,205,205,206,206,206,206,206,206,206,206,207,207,207,207,207,207,207,207,0,0,207,207,207,208,208,208,208,208,208,208,208,208,208,208,208,208,208,208,208,208,208,208,208,209,209,209,209,209,209,209,209,209,209,209,209,209,209,210,210,210,210,210,210,210,210,210,210,210,210,210,211,211,211,211,211,211,211,211,212,212,212,212,213,213,213,213,213,214,214,214,214,214,214,214,214,215,215,215,215,216,216,216,217,217,218,218,218,219,220,220,220,220,220,221,221,221,222,222,222,222,223,223,223,0,0,0,0,0,227,227,227,227,228,229,229,230,231,231,232,233,233,234,235,236,236,237,0,239,239,239,239,240,241,241,241,241,241,242,242,242,242,242,242,242,242,243,243,243,243,243,243,243,243,243,243,243,243,243,243,243,243,243,243,242,242,242,241,241,241,241,240,239,239,238,238,238,237,237,237,237,237,236,236,236,236,236,235,235,235,235,234,234,234,234,234,234,233,233,233,233,233,232,232,232,232,232,232,232,232,232,232,231,231,231,231,231,231,231,231,231,231,231,231,232,232,232,232,232,232,232,232,232,232,232,232,232,233,232,232,232,232,232,232,232,232,232,232,232,232,232,232,232,232,232,232,232,232,232,232,232,232,232,232,233,233,233,233,233,233,233,233,233,233,233,233,233,233,234,234,234,234,234,234,234,234,234,234,234,234,234,234,234,234,234,234,234,234,234,234,234,234,235,235,235,235,235,235,235,235,235,235,235,235,235,236,236,236,236,236,236,236,236,236,237,237,237,237,237,237,237,237,237,237,238,238,238,238,239,239,239,240,240,240,240,241,241,241,241,242,242,242,243,243,243,244,244,244,244,244,244,244,244,244,244,244,244,244,244,244,244,244,244,244,244,244,244,244,244,244,244,245,245,245,245,245,245,245,245,245,245,245,245,245,245,245,244,244,244,244,244,244,244,244,244,244,244,244,244,244,243,243,243,243,243,244,244,244,244,244,244,245,245,245,245,245,245,246,246,246,247,247,247,247,247,247,247,248,248,248,248,248,248,248,248,248,248,248,248,249,249,249,249,249,249,249,249,250,250,250,250,249,249,249,249,249,249,249,249,249,249,249,249,249,249,249,249,248,248,248,248,248,248,248,248,248,248,248,248,248,248,248,248,248,248,248,248,247,247,247,247,247,247,247,247,246,246,246,246,246,246,245,245,245,245,245,245,245,245,245,245,245,245,245,244,244,244,244,244,244,244,244,243,243,243,243,243,242,242,242,242,242,241,241,241,241,241,240,240,240,240,240,240,240,240,240,240,240,240,240,239,239,239,239,239,239,239,239,239,239,239,239
0,0,0,0,0,0,0,0,0,0,0,0,0,202,202,202,202,202,202,202,202,202,202,202,202,202,202,202,202,202,202,203,203,203,203,203,203,203,203,204,204,204,204,204,205,205,205,205,205,205,205,206,206,206,206,206,206,206,206,207,207,207,207,207,207,207,207,0,0,207,207,207,208,208,208,208,208,208,208,208,208,208,208,208,208,208,208,208,208,208,208,208,209,209,209,209,209,209,209,209,209,209,209,209,209,209,210,210,210,210,210,210,210,210,210,210,210,211,211,211,211,211,211,211,211,211,211,212,212,212,213,213,213,213,213,213,214,214,214,214,214,214,214,214,214,215,215,215,216,216,216,217,217,217,218,218,219,219,219,220,220,220,221,221,221,221,222,222,222,222,222,223,0,0,225,225,225,226,226,226,227,228,229,229,230,231,231,232,233,233,234,235,236,236,237,0,239,239,239,239,240,240,240,241,241,241,241,242,242,242,242,242,242,242,243,243,243,243,243,243,243,243,243,243,243,243,244,243,243,243,243,243,242,242,242,241,241,241,241,240,239,239,239,239,238,238,238,237,237,237,237,237,236,236,236,236,236,235,235,235,234,234,234,234,234,233,233,233,233,233,233,233,232,232,232,232,232,232,232,232,232,232,231,231,231,231,231,232,232,232,232,232,232,232,232,232,232,232,232,232,232,232,232,233,233,233,233,233,233,233,233,233,233,232,232,232,232,232,232,232,232,232,233,233,233,233,233,233,233,233,233,233,233,233,233,233,233,233,233,233,233,233,233,234,234,234,234,234,234,234,234,234,234,235,235,235,235,235,235,235,234,234,234,234,234,234,234,234,234,234,235,235,235,235,235,235,235,235,235,235,235,235,235,235,236,236,236,236,236,236,236,236,237,237,237,237,237,237,237,237,237,237,238,238,238,238,239,239,239,240,240,240,240,241,241,241,241,242,242,242,243,243,243,244,244,244,244,244,244,244,244,244,244,244,244,244,244,244,244,244,244,244,244,244,244,244,244,245,245,245,245,245,245,245,245,245,245,245,245,245,245,245,245,245,244,244,244,244,244,244,244,244,244,244,243,243,243,243,243,243,243,243,243,243,244,244,244,244,244,244,245,245,245,245,245,246,246,246,247,247,247,247,247,247,247,247,248,248,248,248,248,248,248,248,248,248,248,249,249,249,249,249,249,249,249,250,250,250,250,249,249,249,249,249,249,249,249,249,249,249,249,249,249,249,249,248,248,248,248,248,248,248,248,248,248,248,248,248,248,248,248,248,248,248,248,247,247,247,247,247,247,247,247,246,246,246,246,246,246,245,245,245,245,245,245,245,245,245,245,245,245,245,244,244,244,244,244,244,244,243,243,243,243,243,242,242,242,242,242,241,241,241,241,241,241,240,240,240,240,240,240,240,240,240,240,240,240,239,239,239,239,239,239,239,239,239,239,239,239,239
0,0,0,0,0,0,0,0,0,0,0,0,0,202,202,202,202,202,202,202,202,202,202,202,202,202,202,202,202,202,203,203,203,203,203,203,203,203,203,204,204,204,204,204,205,205,205,205,205,205,205,206,206,206,206,206,206,206,206,207,207,207,207,207,207,207,207,207,207,207,207,207,208,208,208,208,208,208,208,208,208,208,208,208,208,208,208,208,208,208,208,208,208,208,209,209,209,209,209,209,209,209,209,209,209,209,210,210,210,210,210,210,210,210,210,210,210,211,211,211,211,211,211,211,211,211,211,212,212,212,212,212,212,213,213,213,213,214,214,214,214,214,214,214,214,215,215,215,215,215,216,217,217,217,218,218,218,219,219,219,220,220,220,221,221,221,221,221,222,222,222,222,223,223,224,225,225,225,226,226,226,227,227,228,229,230,230,232,233,233,234,235,236,236,0,0,0,239,239,239,240,240,240,241,241,241,241,242,242,242,242,242,242,242,243,243,243,243,243,243,243,243,243,243,243,243,0,0,0,243,243,243,242,242,242,241,241,241,241,240,240,240,239,239,239,238,238,238,238,237,237,237,237,237,236,236,236,235,235,235,235,235,234,234,234,234,234,233,233,233,233,233,232,232,232,232,232,232,232,232,232,232,231,231,231,231,231,232,232,232,232,232,232,232,232,232,232,232,232,232,232,232,232,233,233,233,233,233,233,233,233,233,233,232,232,232,232,232,232,232,232,232,233,233,233,233,233,233,233,233,233,233,233,233,233,233,233,233,233,233,233,233,233,234,234,234,234,234,234,234,234,234,234,235,235,235,235,235,235,235,235,235,235,235,235,235,235,235,235,235,235,235,235,235,235,235,235,235,235,235,235,235,235,235,236,236,236,236,236,236,236,237,237,237,237,237,237,237,237,237,238,238,0,0,239,239,239,239,240,240,240,241,241,241,241,241,242,242,242,243,243,243,244,244,244,244,245,245,245,245,245,245,245,245,245,245,245,245,245,245,244,244,244,244,244,244,245,245,245,245,245,245,245,245,245,245,245,245,245,245,245,245,245,245,244,244,244,244,244,244,244,244,244,244,243,243,243,243,243,243,243,243,243,243,244,244,244,244,244,244,245,245,245,245,245,246,246,246,247,247,247,247,247,247,247,247,247,247,248,248,248,248,248,248,248,248,248,248,248,249,249,249,249,249,249,249,249,249,249,249,249,249,249,249,249,249,249,249,249,249,249,249,248,248,248,248,248,248,248,248,248,248,248,248,248,248,248,248,248,248,248,248,248,248,248,247,247,247,247,246,246,246,246,246,246,246,245,245,245,245,245,245,245,245,245,245,245,245,245,245,245,244,244,244,244,244,243,243,243,243,243,243,242,242,242,242,242,242,242,241,241,241,241,241,241,240,240,240,240,240,240,240,240,240,240,239,239,239,239,239,239,239,239,239,239,239,239,239,239,239
0,0,0,0,0,0,0,0,0,0,0,202,202,202,202,202,202,202,202,202,202,202,202,202,202,202,202,202,202,202,203,203,203,203,203,203,203,203,203,204,204,204,204,204,204,205,205,205,205,205,205,0,0,0,0,206,206,206,206,207,207,207,207,207,207,207,207,207,207,207,208,208,208,208,208,208,208,208,208,208,208,208,208,208,208,208,208,208,208,208,208,208,208,208,208,209,209,209,209,209,209,209,209,209,209,209,210,210,210,210,210,210,210,210,210,210,210,211,211,211,211,211,211,211,211,211,211,212,212,212,212,212,212,213,213,213,213,214,214,214,214,214,214,214,214,215,215,215,215,215,216,217,217,217,218,218,218,219,219,219,220,220,220,221,221,221,221,221,222,222,222,222,223,223,224,225,225,225,226,226,226,227,227,228,229,230,230,232,233,233,234,235,236,236,237,0,238,238,239,239,240,240,240,241,241,241,241,242,242,242,242,242,242,242,242,243,243,243,243,243,243,243,243,243,243,243,0,0,0,243,243,243,242,242,242,241,241,241,241,240,240,240,239,239,239,238,238,238,238,237,237,237,237,237,236,236,236,235,235,235,235,235,234,234,234,234,234,233,233,233,233,233,233,232,232,232,232,232,232,232,232,232,232,232,232,232,232,232,232,232,232,232,232,232,232,232,232,232,232,232,232,232,233,233,233,233,233,233,233,233,233,233,233,233,233,233,233,232,232,233,233,233,233,233,233,233,233,233,233,233,233,233,233,233,233,233,233,234,234,234,234,234,234,234,234,234,234,234,234,235,235,235,235,235,235,235,235,235,235,235,235,235,235,235,235,235,235,235,235,235,235,235,235,235,235,235,235,235,235,235,235,235,235,236,236,236,236,236,236,237,237,237,237,237,237,237,237,237,237,238,238,238,0,0,239,239,240,240,240,241,241,241,241,241,242,242,242,242,242,243,243,243,244,244,244,244,245,245,245,245,245,245,245,245,245,245,245,245,245,245,244,244,244,244,244,244,245,245,245,245,245,245,245,245,245,245,245,245,245,245,245,245,245,245,244,244,244,244,244,244,244,244,243,243,243,243,243,243,243,243,243,243,243,243,243,243,244,244,244,244,244,244,245,245,245,245,245,246,246,246,247,247,247,247,247,247,247,247,247,247,247,248,248,248,248,248,248,248,248,248,249,249,249,249,249,249,249,249,249,249,249,249,249,249,249,249,249,248,248,248,248,248,248,248,248,248,248,248,248,248,248,248,248,248,248,248,248,248,248,248,247,247,247,247,0,0,247,247,247,246,246,246,246,246,246,246,245,245,245,245,245,245,245,245,245,245,245,245,245,245,245,244,244,244,244,244,243,243,243,243,243,243,242,242,242,242,242,242,242,241,241,241,241,241,241,240,240,240,240,240,240,240,240,240,240,239,239,239,239,239,239,239,239,239,239,239,239,239,239,239
0,0,0,0,0,0,0,0,0,0,0,202,202,202,202,202,202,202,202,202,202,202,202,202,202,202,202,202,203,203,203,203,203,203,203,203,203,203,203,204,204,204,204,204,204,205,205,205,205,205,0,0,0,0,0,0,206,206,206,207,207,207,207,207,207,207,207,207,207,207,208,208,208,208,208,208,208,208,208,208,208,208,208,208,208,208,208,208,208,208,208,208,208,208,208,209,209,209,209,209,209,209,209,209,209,209,210,210,210,210,210,210,210,210,210,210,210,210,210,211,211,211,211,211,211,211,211,211,212,212,212,212,212,213,213,213,213,213,213,213,213,213,214,214,214,215,215,215,215,215,216,216,216,217,217,217,218,219,219,219,220,220,220,221,221,221,221,221,221,222,222,222,222,222,223,224,224,225,225,225,226,227,227,228,229,230,230,231,232,232,233,234,234,236,236,237,237,238,239,239,240,240,240,241,241,241,241,242,242,242,242,242,242,242,242,243,243,243,243,243,243,243,243,243,243,243,244,244,0,0,243,243,242,242,242,242,242,241,241,241,240,240,240,240,239,239,239,238,238,238,237,237,237,237,237,236,236,236,236,235,235,235,235,235,234,234,234,234,234,233,233,233,233,233,233,232,232,232,232,232,232,232,232,232,232,232,232,232,232,232,232,232,232,232,232,232,232,232,232,232,232,232,233,233,233,233,233,233,233,233,233,233,233,233,233,233,233,233,233,233,233,233,233,233,233,233,233,233,233,233,233,233,233,233,233,233,233,234,234,234,234,234,234,234,234,234,234,234,234,235,235,235,235,235,235,235,235,235,235,235,235,235,235,235,235,235,235,235,235,235,235,235,235,235,235,235,235,235,235,235,235,235,235,236,236,236,236,236,236,237,237,237,237,237,237,237,237,237,237,238,238,238,0,0,239,239,240,240,240,241,241,241,241,241,242,242,242,243,243,243,244,244,244,244,244,245,245,245,245,245,245,245,245,245,245,245,245,245,245,245,245,245,245,245,245,245,245,245,245,245,245,245,245,245,245,245,245,245,245,245,245,245,245,245,244,244,244,244,244,244,243,243,243,243,243,243,243,243,243,243,243,243,243,243,243,243,244,244,244,244,244,244,245,245,245,245,245,246,246,246,247,247,247,247,247,247,247,247,247,247,247,248,248,248,248,248,248,248,248,248,249,249,249,249,249,249,249,249,249,249,249,249,249,249,249,249,249,248,248,248,248,248,248,248,248,248,248,248,248,248,248,248,248,248,248,248,248,248,248,248,247,247,247,247,247,247,247,247,247,246,246,246,246,246,245,245,245,245,245,245,245,245,245,245,245,245,245,245,245,244,244,244,244,244,244,244,243,243,243,243,243,242,242,242,242,242,241,241,241,241,241,241,241,241,241,240,240,240,240,240,240,240,240,240,239,239,239,239,239,239,239,239,239,239,239,239,239,239,238,238
0,0,0,0,0,0,0,0,0,0,0,0,0,202,202,202,202,202,202,202,202,202,202,202,202,202,202,202,202,202,203,203,203,203,203,203,203,203,203,204,204,204,204,204,204,205,205,205,205,205,0,0,0,0,0,0,206,206,206,206,206,207,207,207,207,207,207,207,207,207,208,208,208,208,208,208,208,208,208,208,208,208,208,208,208,208,208,208,208,208,208,208,208,208,208,209,209,209,209,209,209,209,209,209,209,209,210,210,210,210,210,210,210,210,210,210,210,210,210,211,211,211,211,211,211,211,211,211,212,212,212,212,212,213,213,213,213,213,213,213,213,213,214,214,214,0,214,214,215,215,215,216,216,216,217,217,218,218,218,219,220,220,220,221,221,221,221,221,221,222,222,222,222,222,223,224,224,225,225,225,226,227,227,228,229,0,231,231,232,232,233,234,234,236,236,237,237,238,239,239,240,240,240,241,241,241,241,242,242,242,242,242,242,242,242,243,243,243,243,243,243,243,243,243,243,243,244,244,0,0,243,243,243,242,242,242,242,242,241,241,241,241,240,240,239,239,239,238,238,238,237,237,237,237,237,236,236,236,236,235,235,235,235,235,234,234,234,234,234,233,233,233,233,233,233,232,232,232,232,232,232,232,232,232,232,232,232,232,232,232,232,232,232,232,232,232,232,232,232,232,232,232,233,233,233,233,233,233,233,233,233,233,233,233,233,233,233,233,233,233,233,233,233,233,233,233,233,233,233,233,233,233,234,234,234,234,234,234,234,234,234,234,234,234,234,234,235,235,235,235,235,235,235,235,235,235,235,235,235,235,235,235,235,235,235,235,235,235,235,235,235,235,235,235,235,235,235,235,235,235,235,236,236,236,236,236,236,237,237,237,237,237,237,237,237,238,238,238,238,238,0,0,0,0,239,239,240,240,240,241,241,241,242,242,242,243,243,243,0,0,245,245,245,245,245,245,245,245,245,245,245,245,245,245,245,245,245,245,245,245,245,245,245,245,245,245,245,245,245,245,245,245,245,246,245,245,245,245,245,245,245,245,245,245,244,244,244,244,244,244,243,243,243,243,243,243,243,243,243,243,243,243,243,243,243,243,243,244,244,244,244,244,244,244,245,245,245,246,246,246,246,247,247,247,247,247,247,247,247,247,247,247,247,247,248,248,248,248,248,248,248,248,248,248,249,249,249,249,249,249,249,248,248,248,248,248,248,248,248,248,248,248,248,248,248,248,248,247,247,247,247,247,247,247,247,247,247,247,247,247,247,247,247,247,247,247,247,247,246,246,246,246,246,245,245,245,245,245,245,245,245,245,245,245,245,245,245,244,244,244,244,244,244,244,243,243,243,243,243,242,242,242,242,242,241,241,241,241,241,241,241,241,241,241,241,240,240,240,240,240,240,240,240,240,239,239,239,239,239,239,239,239,239,239,239,239,239,239,238,238
0,0,0,0,0,0,0,0,0,0,0,202,202,202,202,202,202,202,202,202,202,202,202,202,202,202,202,202,202,202,203,203,203,203,203,203,203,203,203,204,204,204,204,204,204,205,205,205,205,205,205,205,205,205,0,0,206,206,206,206,206,207,207,207,207,207,207,207,207,207,208,208,208,208,208,208,208,208,208,208,208,208,208,208,208,208,208,208,208,208,208,208,208,208,208,209,209,209,209,209,209,209,209,209,209,0,0,0,210,210,210,210,210,210,210,210,210,210,210,211,211,211,211,211,211,211,211,211,212,212,212,212,212,213,213,213,213,213,213,213,213,213,0,0,0,0,214,214,215,215,215,216,216,216,217,217,218,218,218,219,220,220,220,220,220,221,221,221,221,222,222,222,222,222,223,223,223,224,224,224,225,226,226,227,228,228,229,231,231,231,232,233,233,235,236,237,237,238,239,239,240,240,240,241,241,241,241,241,241,242,242,242,242,242,242,243,243,243,243,243,243,243,243,243,243,243,244,244,244,243,243,243,243,242,242,242,242,242,241,241,241,241,240,240,240,239,239,239,238,238,238,238,237,237,237,237,237,236,236,236,235,235,235,235,235,234,234,234,234,234,234,234,233,233,233,233,233,233,233,233,232,232,232,232,232,232,232,232,232,232,232,232,232,232,232,232,232,232,233,233,233,233,233,233,233,233,233,233,233,233,233,233,233,233,233,233,233,233,233,233,233,233,233,233,233,233,233,234,234,234,234,234,234,234,234,234,234,234,234,234,235,235,235,235,235,235,235,235,235,235,235,235,235,235,235,235,235,235,235,235,235,235,235,235,235,235,235,235,235,235,235,235,235,235,235,235,235,235,235,235,235,236,236,236,236,236,236,237,237,237,237,237,237,237,237,238,238,238,238,238,238,238,239,239,239,239,240,240,240,241,241,241,242,242,242,243,243,243,244,244,245,245,245,245,245,245,245,245,245,245,245,245,245,245,245,245,245,245,245,245,245,245,245,245,245,245,245,245,245,245,245,245,245,245,245,245,245,245,245,245,245,245,245,245,244,244,244,244,244,244,243,243,243,243,243,243,243,243,243,243,243,243,243,243,243,243,243,243,243,244,244,244,244,244,244,245,245,245,246,246,246,246,246,246,246,247,247,247,247,247,247,247,247,247,247,247,248,248,248,248,248,248,248,248,248,248,248,248,248,248,248,248,248,248,248,248,248,248,248,248,248,248,248,248,248,248,248,247,247,247,247,247,247,247,247,247,247,247,247,247,247,247,247,247,247,247,247,247,246,246,246,246,246,245,245,245,245,245,245,245,245,245,245,245,245,245,245,244,244,244,244,244,244,244,243,243,243,243,243,242,242,242,242,242,241,241,241,241,241,241,241,241,241,241,241,240,240,240,240,240,240,240,239,239,239,239,239,239,239,239,239,239,239,239,239,238,238,238,238,238
0,0,0,0,0,0,0,0,0,0,0,202,202,202,202,202,202,202,202,202,202,202,202,202,202,202,202,202,203,203,203,203,203,203,203,203,203,203,203,204,0,0,0,0,205,205,205,205,205,205,205,205,205,205,0,0,206,206,206,206,206,207,207,207,207,207,207,207,207,207,208,208,208,208,208,208,208,208,208,208,208,208,208,208,208,208,208,208,208,208,208,208,208,208,208,208,208,209,209,209,209,209,209,209,209,0,0,210,210,210,210,210,210,210,210,210,210,210,210,211,211,211,211,211,211,211,211,211,212,212,212,212,212,212,213,213,213,213,213,213,213,213,0,0,0,0,214,214,214,214,215,215,215,216,217,217,218,218,218,219,219,219,220,220,220,220,221,221,221,0,221,221,221,222,222,222,223,223,223,224,224,224,226,227,228,228,229,230,230,230,231,232,232,234,236,236,236,238,239,239,240,240,240,241,241,241,241,241,241,242,242,242,242,242,242,243,243,243,243,243,243,243,243,243,243,243,244,244,244,243,243,243,243,242,242,242,242,242,241,241,241,241,241,240,240,240,240,239,239,239,238,238,238,238,238,237,237,237,236,236,236,236,235,235,235,235,235,234,234,234,234,234,234,234,234,233,233,233,233,233,233,233,233,233,233,232,232,232,232,232,232,232,232,232,232,232,232,233,233,233,233,233,233,233,233,233,233,233,233,233,233,233,233,233,233,233,233,233,233,233,233,233,233,233,233,233,233,234,234,234,234,234,234,234,234,234,234,234,234,234,235,235,235,235,235,235,235,235,235,235,235,235,235,235,235,235,235,235,235,235,235,235,235,235,235,235,235,235,235,235,235,235,235,235,235,235,235,235,235,235,235,236,236,236,236,236,236,237,237,237,237,237,237,237,237,238,238,238,238,238,238,238,239,239,239,240,240,240,241,242,242,242,242,242,243,243,243,244,244,244,245,245,245,245,245,245,246,246,246,246,246,246,246,246,246,245,245,245,245,245,245,245,245,245,245,245,245,245,245,245,245,245,245,245,245,245,245,245,245,245,245,245,245,245,244,244,244,244,244,244,243,243,243,243,243,243,243,243,243,243,243,243,243,243,243,243,243,243,243,244,244,244,244,244,244,245,245,245,246,246,246,246,246,246,246,247,247,247,247,247,247,247,247,247,247,247,248,248,248,248,248,248,248,248,248,248,248,248,248,248,248,248,248,248,248,248,248,248,248,248,248,248,247,247,247,247,247,247,247,247,247,247,247,247,247,247,247,247,247,247,247,247,247,247,247,247,246,246,246,246,246,245,245,245,245,245,245,245,245,245,245,244,244,244,244,244,244,244,244,244,244,244,243,243,243,243,243,242,242,242,242,242,242,242,241,241,241,241,241,241,241,241,241,241,241,240,240,240,240,240,240,240,239,239,239,239,239,239,239,239,239,239,239,238,238,238,238,238,238,238
0,0,0,0,0,0,0,0,0,0,0,202,202,202,202,202,202,202,202,202,202,202,202,202,202,202,202,202,203,203,203,203,203,203,203,203,203,203,203,204,204,204,204,204,204,204,204,205,205,205,205,205,205,205,206,206,206,206,206,206,206,207,207,207,207,207,207,207,207,207,207,207,208,208,208,208,208,208,208,208,208,208,208,208,208,208,208,208,208,208,208,208,208,208,208,208,208,209,209,209,209,209,209,209,209,209,210,210,210,210,210,210,210,210,210,210,210,210,210,211,211,211,211,211,211,211,211,211,212,212,212,212,212,212,213,213,213,213,213,213,213,0,0,0,0,0,0,214,214,214,215,215,215,216,217,217,218,218,218,219,219,219,220,220,220,220,221,221,221,0,221,221,221,222,222,222,223,223,223,224,224,224,0,0,0,0,0,230,230,230,231,232,232,234,236,236,236,238,239,239,240,240,240,241,241,241,241,241,241,242,242,242,242,242,242,243,243,243,243,243,243,243,243,243,243,243,243,243,243,243,243,243,243,242,242,242,242,242,241,241,241,241,241,240,240,240,240,239,239,239,238,238,238,238,238,237,237,237,236,236,236,236,235,235,235,235,235,234,234,234,234,234,234,234,234,233,233,233,233,233,233,233,233,233,233,232,232,232,232,232,232,232,232,232,232,232,232,233,233,233,233,233,233,233,233,233,233,233,233,233,233,233,233,233,233,233,233,233,233,233,233,233,233,233,234,234,234,234,234,234,234,234,234,235,235,235,235,235,235,235,235,235,235,235,235,235,235,235,235,235,235,235,235,235,235,235,235,235,235,235,235,235,235,235,235,235,235,235,235,235,235,235,235,235,235,235,236,236,236,236,236,236,236,236,236,236,237,237,237,237,237,237,238,238,238,238,238,238,238,238,239,239,239,240,240,240,241,241,241,242,242,242,243,243,243,244,244,244,245,245,245,245,245,246,246,246,246,246,246,246,246,246,246,246,246,246,246,246,245,245,245,245,245,245,245,245,245,245,245,245,245,245,245,245,245,245,245,245,245,245,245,245,244,244,244,244,244,244,244,243,243,243,243,243,243,242,242,242,242,242,242,242,242,242,242,242,243,243,243,243,243,243,244,244,244,244,244,245,245,245,245,245,246,246,246,246,246,246,247,247,247,247,247,247,247,247,247,247,247,248,248,248,248,248,248,248,248,248,248,248,248,248,248,248,248,248,248,248,248,247,247,247,247,247,247,247,247,247,247,247,247,247,247,247,247,247,247,247,247,247,246,246,246,246,246,246,246,246,246,246,246,245,245,245,245,245,245,245,244,244,244,244,244,244,244,244,244,244,244,244,244,244,243,243,243,243,243,242,242,242,242,242,242,242,241,241,241,241,241,241,241,241,241,241,241,240,240,240,240,240,240,240,239,239,239,239,239,239,239,239,239,239,239,238,238,238,238,238,238,238
0,0,0,0,0,0,0,0,0,0,0,0,0,202,202,202,202,202,202,202,202,202,202,202,202,202,202,202,203,203,203,203,203,203,203,203,203,203,203,204,204,204,204,204,204,204,204,204,205,205,205,205,205,205,206,206,206,206,206,206,206,207,207,207,207,0,207,207,207,207,207,207,208,208,208,208,208,208,208,208,208,208,208,208,208,208,208,208,208,208,208,208,208,208,208,208,208,209,209,209,209,209,209,209,209,209,210,210,210,210,210,210,210,210,210,210,210,211,211,211,211,211,211,211,211,211,211,211,212,212,212,0,212,212,212,212,212,212,212,212,212,0,0,0,213,213,213,214,214,214,215,215,215,216,216,216,217,218,218,218,219,219,220,220,220,220,220,220,221,0,221,221,221,222,222,222,222,223,223,223,224,224,0,0,0,0,0,230,230,230,231,231,231,234,236,236,236,238,239,239,240,240,240,241,241,241,241,241,241,242,242,242,242,242,242,242,242,243,243,243,243,243,243,243,243,243,243,243,243,243,243,243,243,242,242,242,242,242,242,242,241,241,241,241,241,240,240,240,239,239,239,239,238,238,238,238,238,237,237,237,236,236,236,235,235,235,235,235,234,234,234,234,234,234,234,234,234,234,233,233,233,233,233,233,233,233,233,233,233,233,233,233,233,233,233,233,233,233,233,233,233,233,233,233,233,233,233,233,233,233,233,233,233,233,233,233,233,233,233,233,233,234,234,234,234,234,234,234,234,234,235,235,235,235,235,235,235,235,235,235,236,236,236,236,236,236,236,236,236,236,236,236,236,236,236,236,236,236,235,235,235,235,235,235,235,235,235,235,235,235,235,235,235,235,235,235,236,236,236,236,236,236,236,236,236,236,237,237,237,237,237,237,238,238,238,238,238,238,238,238,239,239,239,240,240,240,241,241,241,242,242,242,243,243,243,244,244,244,245,245,245,245,245,246,246,246,246,246,246,246,246,246,246,246,246,246,246,246,245,245,245,245,245,245,245,245,245,245,245,245,245,245,245,245,245,245,245,245,245,245,245,244,244,244,244,244,244,243,243,243,243,243,242,242,242,242,242,242,242,242,242,242,242,242,242,242,242,242,243,243,243,243,243,243,243,244,244,244,245,245,245,245,245,246,246,246,246,246,247,247,247,247,247,247,247,247,247,247,247,248,248,248,248,248,248,248,248,248,248,248,248,248,248,248,248,248,248,248,248,247,247,247,247,247,247,247,247,247,247,247,247,247,247,247,247,247,247,247,247,247,246,246,246,246,246,246,246,246,246,246,0,0,0,0,245,245,245,245,244,244,244,244,244,244,244,244,244,244,244,244,244,244,243,243,243,243,243,242,242,242,242,242,241,241,241,241,241,241,241,241,241,241,241,241,241,240,240,240,240,240,240,240,239,239,239,239,239,239,239,239,239,239,238,238,238,238,238,238,238,238
0,0,0,0,0,0,0,0,0,0,0,0,0,0,202,202,202,202,0,202,202,202,202,202,202,202,202,202,203,203,203,203,203,203,203,203,203,203,203,204,204,204,204,204,204,204,204,204,205,205,205,205,205,205,205,205,206,206,206,206,206,207,207,207,207,0,207,207,207,207,207,207,208,208,208,208,208,208,208,208,208,208,208,208,208,208,208,208,208,208,208,208,208,208,208,208,208,209,209,209,209,209,209,209,209,209,210,210,210,210,210,210,210,210,210,210,210,211,211,211,211,211,211,211,211,211,211,211,212,212,212,0,212,212,212,212,212,212,212,212,212,212,212,212,212,212,213,213,214,214,214,215,215,215,216,216,217,217,217,218,219,219,219,220,220,220,220,220,220,220,220,221,221,221,221,221,222,222,222,222,0,0,0,0,0,226,226,226,0,0,231,231,231,0,0,0,238,238,239,239,241,241,241,241,241,241,241,241,241,242,242,242,242,242,242,242,242,243,243,243,243,243,243,243,243,243,243,243,243,243,243,243,243,243,243,243,243,242,242,242,242,242,241,241,241,241,241,240,240,240,239,239,239,238,238,238,238,237,237,237,236,236,236,236,236,235,235,235,235,235,235,235,234,234,234,234,234,234,233,233,233,233,233,233,233,233,233,233,233,233,233,233,233,233,233,233,233,233,233,233,233,233,233,233,233,233,233,233,233,233,233,233,233,233,233,233,233,233,233,233,233,234,234,234,234,234,234,234,234,234,235,235,235,235,235,235,235,235,235,235,236,236,236,236,236,236,236,236,236,236,236,236,236,236,236,236,236,236,236,236,236,236,236,236,235,235,235,236,236,236,236,0,0,0,236,236,236,236,236,236,236,236,236,236,237,237,237,237,237,237,238,238,238,238,238,238,238,239,239,239,239,240,240,240,241,241,241,242,242,242,242,243,243,243,244,244,244,245,245,245,246,246,246,246,246,246,246,246,246,246,246,246,246,246,246,246,246,246,246,246,246,245,245,245,245,245,245,245,245,245,245,245,245,245,245,245,245,245,245,245,245,244,244,244,244,244,244,243,243,243,243,243,242,242,242,242,242,242,242,242,242,242,242,242,242,242,242,242,243,243,243,243,243,243,243,244,244,244,245,245,245,245,245,246,246,246,246,246,246,246,246,247,247,247,247,247,247,247,247,247,247,247,248,248,248,248,248,248,248,248,248,248,248,248,248,248,248,247,247,247,247,247,247,247,247,247,247,247,247,246,246,246,246,246,246,246,246,246,246,246,246,246,246,246,246,246,246,246,246,246,0,0,0,0,245,244,244,244,244,244,244,244,244,244,244,244,244,244,244,243,243,243,243,243,243,243,242,242,242,242,242,242,241,241,241,241,241,241,241,241,241,241,241,241,240,240,240,240,240,240,239,239,239,239,239,239,239,239,239,239,238,238,238,238,238,238,238,238,238,238
0,0,0,0,0,0,0,0,0,0,0,0,0,0,202,202,202,202,202,202,202,202,202,202,202,202,202,202,203,203,203,203,203,203,203,203,203,203,203,203,203,204,204,204,204,204,204,204,205,205,205,205,205,205,205,205,206,206,206,206,206,207,207,207,207,207,207,207,207,207,207,207,208,208,208,208,208,208,208,208,208,208,208,208,208,208,208,208,208,208,208,208,208,208,208,208,208,209,209,209,209,209,209,209,209,209,210,210,210,210,210,210,210,210,210,210,210,211,211,211,211,211,211,211,211,211,211,211,212,212,212,0,0,0,0,212,212,212,212,212,212,212,212,212,212,212,213,213,214,214,214,215,215,215,216,216,217,217,217,218,219,219,219,220,220,220,220,220,220,220,220,221,221,221,221,221,222,222,222,222,0,0,0,0,0,226,226,226,0,228,228,228,230,232,0,0,238,238,239,239,241,241,241,241,241,241,241,241,241,242,242,242,242,242,242,242,242,243,243,243,243,243,243,243,243,243,243,243,243,243,243,243,243,243,243,243,243,242,242,242,242,242,241,241,241,241,241,240,240,240,239,239,239,238,238,238,238,237,237,237,236,236,236,236,236,235,235,235,235,235,235,235,234,234,234,234,234,234,234,234,234,234,234,233,233,233,233,233,233,233,233,233,233,233,233,233,233,233,233,233,233,233,233,234,234,234,234,234,234,234,234,234,234,234,234,234,234,234,234,234,234,234,234,234,234,235,235,235,235,235,235,235,235,236,236,236,236,236,236,236,236,236,236,236,236,236,236,236,236,236,236,236,236,236,236,236,236,236,236,236,236,236,236,236,236,236,236,236,236,236,236,0,0,0,236,236,236,236,236,236,236,237,237,237,237,237,237,238,238,238,238,238,238,238,238,239,239,239,239,239,240,240,240,241,241,241,242,242,242,243,243,243,244,244,244,244,244,245,245,245,246,246,246,246,246,246,246,246,246,246,246,246,246,246,246,246,246,246,246,246,246,245,245,245,245,245,245,245,245,245,245,245,245,245,245,245,245,245,245,245,245,244,244,244,244,244,243,243,243,243,243,243,242,242,242,242,242,242,242,241,241,241,241,241,242,242,242,242,242,242,242,242,243,243,243,243,243,244,244,244,244,244,245,245,245,245,245,245,246,246,246,246,246,246,247,247,247,247,247,247,247,247,247,247,247,247,247,247,247,247,247,247,247,247,247,247,247,247,247,247,247,247,247,247,247,246,246,246,246,246,246,246,246,246,246,246,246,246,246,246,246,246,246,246,246,246,246,246,246,0,0,0,0,0,0,244,244,244,244,244,244,244,244,244,244,244,244,244,244,243,243,243,243,243,243,243,242,242,242,242,242,242,241,241,241,241,241,241,241,241,241,241,241,241,240,240,240,240,240,240,239,239,239,239,239,239,239,239,239,239,238,238,238,238,238,238,238,238,238,238
0,0,0,0,0,0,0,0,0,0,0,0,0,0,202,202,202,202,202,202,202,202,202,202,202,202,202,202,203,203,203,203,203,203,203,203,203,203,203,203,203,204,204,204,204,204,204,204,205,205,205,205,205,205,205,205,206,206,206,206,206,207,207,207,207,207,207,207,207,207,207,207,208,208,208,208,208,208,208,208,208,208,208,208,208,208,208,208,208,208,208,208,208,208,208,208,208,209,209,209,209,209,209,209,209,209,209,209,210,210,210,210,210,210,210,210,210,211,211,211,211,211,211,211,211,211,211,211,212,212,212,212,212,212,212,212,212,212,212,212,212,212,212,212,212,212,212,213,213,213,214,214,214,215,216,216,216,217,217,218,219,219,219,219,219,219,219,219,220,220,220,220,220,221,221,221,221,221,221,222,222,222,222,223,223,224,225,225,226,226,226,227,230,232,0,0,238,238,239,239,0,0,241,241,241,241,241,241,241,242,242,242,242,242,242,242,242,242,243,243,243,243,243,243,243,243,243,243,243,243,243,243,243,243,243,243,243,242,242,242,242,242,242,241,241,241,241,241,240,240,240,239,239,239,239,238,238,238,237,237,237,237,236,236,236,236,236,235,235,235,235,235,235,235,235,234,234,234,234,234,234,234,234,234,234,234,234,234,234,233,233,233,233,233,233,233,233,233,233,233,234,234,234,234,234,234,234,234,234,234,234,234,234,234,234,234,234,234,234,234,235,235,235,235,235,235,235,236,236,235,235,235,235,236,236,236,236,236,236,236,236,236,236,236,236,236,236,236,236,236,236,236,236,236,236,236,236,236,236,236,236,236,236,236,236,236,236,236,236,236,236,236,236,236,236,236,236,236,236,236,236,237,237,237,237,237,237,238,238,238,238,238,238,238,238,239,239,239,239,239,240,240,240,241,241,241,242,242,242,243,243,243,244,244,244,244,244,245,245,245,246,246,246,246,246,246,246,246,246,246,246,246,246,246,246,246,246,246,246,246,246,245,245,245,245,245,245,245,245,245,245,245,245,245,245,245,245,245,245,244,244,244,244,244,243,243,243,243,243,242,242,242,242,242,242,242,242,242,242,241,241,241,241,241,242,242,242,242,242,242,242,242,243,243,243,243,243,244,244,244,244,244,245,245,245,245,245,245,246,246,246,246,246,246,247,247,247,247,247,247,247,247,247,247,247,247,247,247,247,247,247,247,247,247,247,247,247,247,247,247,247,247,247,247,247,246,246,246,246,246,246,246,246,246,246,246,246,246,246,246,246,246,246,245,245,245,245,245,245,245,245,0,0,0,0,244,244,244,244,244,244,244,244,244,244,244,244,244,243,243,243,243,243,243,243,243,242,242,242,242,242,241,241,241,241,241,241,241,241,241,241,241,240,240,240,240,240,240,240,239,239,239,239,239,239,239,239,238,238,238,238,238,238,238,238,238,238,238,238,238
0,0,0,0,0,0,0,0,0,0,0,0,0,0,202,202,202,202,202,202,202,202,202,202,202,202,202,202,203,203,203,203,203,203,203,203,203,203,203,203,203,204,204,204,204,204,204,204,205,205,205,205,205,205,205,205,205,205,206,206,206,207,207,207,207,207,207,207,207,207,207,207,208,208,208,208,208,208,208,208,208,208,208,208,208,208,208,208,208,208,208,208,208,208,208,208,208,209,209,209,209,209,209,209,209,209,209,209,210,210,210,210,210,210,210,210,211,211,211,211,211,211,211,211,211,211,211,211,212,212,212,212,212,212,212,212,212,212,212,212,212,212,212,212,212,212,212,212,212,213,213,213,214,214,214,215,216,0,0,0,0,0,219,219,219,219,219,219,220,220,220,220,220,221,221,221,221,221,221,222,222,222,222,223,223,224,225,225,226,226,226,227,0,0,0,0,0,239,239,239,0,0,241,241,241,241,241,241,241,242,242,242,242,242,242,242,242,242,243,243,243,243,243,243,243,243,0,0,0,0,243,243,243,243,243,243,243,243,243,243,242,242,242,241,241,241,241,241,240,240,240,239,239,239,239,238,238,238,237,237,237,237,236,236,236,236,236,235,235,235,235,235,235,235,235,234,234,234,234,234,234,234,234,234,234,234,234,234,234,233,233,233,233,233,233,233,233,233,233,233,234,234,234,234,234,234,234,234,234,234,234,234,234,234,234,234,234,234,234,234,235,235,235,235,235,235,235,236,236,236,236,236,236,236,236,236,237,237,237,237,237,237,237,237,237,237,237,237,237,237,237,237,237,237,236,236,236,236,236,236,236,236,236,236,236,236,236,236,236,236,236,236,236,236,236,236,237,237,237,237,237,237,237,237,237,237,238,238,238,238,238,238,239,239,239,239,239,240,240,240,240,241,241,241,242,242,242,243,243,243,243,243,244,244,244,245,245,245,245,245,246,246,246,246,246,246,246,246,246,246,246,246,246,246,246,246,246,246,246,246,246,245,245,245,245,245,245,245,245,245,245,245,245,245,245,245,245,245,245,244,244,244,244,244,243,243,243,243,243,242,242,242,242,242,242,241,241,241,241,241,241,241,241,241,241,241,241,241,242,242,242,242,242,242,242,242,243,243,243,244,244,244,244,244,244,245,245,245,245,245,245,246,246,246,246,246,246,246,246,247,247,247,247,247,247,247,247,247,247,247,247,247,247,247,247,247,247,247,247,247,247,247,246,246,246,246,246,246,246,246,246,246,246,246,246,245,245,245,245,245,245,245,245,245,245,245,245,245,244,244,244,0,0,0,0,244,244,244,244,244,244,244,244,243,243,243,243,243,243,243,243,243,243,243,242,242,242,242,242,241,241,241,241,241,241,241,241,241,241,241,241,241,240,240,240,240,240,240,240,239,239,239,239,239,239,239,239,238,238,238,238,238,238,238,238,238,238,238,238,238
0,0,0,0,0,0,0,0,0,0,0,0,0,0,202,202,202,202,202,202,202,202,202,202,202,202,202,202,203,203,203,203,203,203,203,203,203,203,203,203,203,204,204,204,204,204,204,204,205,205,205,205,205,205,205,205,205,205,206,206,206,206,207,207,207,207,207,207,207,207,208,208,208,208,208,208,208,208,208,208,208,208,208,208,208,208,208,208,208,208,208,208,208,208,208,208,208,209,209,209,209,209,209,209,209,210,210,210,210,210,210,210,0,0,211,211,211,211,211,211,211,211,211,211,211,211,211,212,212,212,212,212,212,212,212,212,212,212,212,212,212,212,212,212,212,212,212,212,212,213,213,213,214,214,214,215,216,0,0,0,0,0,219,219,219,219,219,219,219,219,219,220,220,220,220,220,220,221,221,221,221,221,222,222,222,223,224,224,225,225,225,226,227,227,0,0,0,239,239,239,240,241,241,241,241,241,241,241,241,242,242,242,242,242,242,242,242,242,242,242,243,243,243,243,243,243,0,0,0,0,243,243,243,243,243,243,243,243,243,243,242,242,242,242,242,242,241,241,240,240,240,239,239,239,239,238,238,238,237,237,237,237,236,236,236,236,236,236,235,235,235,235,235,235,235,235,235,235,235,234,234,234,234,234,234,234,234,234,234,234,234,234,234,234,234,234,234,234,234,234,234,234,234,234,234,234,234,234,234,234,234,234,234,234,234,234,235,235,235,235,235,235,235,235,236,236,236,236,236,236,236,237,237,237,237,237,237,237,237,237,237,237,237,237,237,237,237,237,237,237,237,237,237,237,237,237,237,237,237,237,237,237,237,237,237,237,237,237,237,237,237,237,237,237,237,237,237,237,237,237,237,237,238,238,238,238,238,238,238,238,238,238,239,239,239,239,239,240,240,240,240,241,241,241,242,242,242,243,243,243,243,243,244,244,244,245,245,245,245,245,246,246,246,246,246,246,246,246,246,246,246,246,246,246,246,246,246,246,246,246,245,245,245,245,245,245,245,245,245,245,245,245,245,245,245,245,244,244,244,244,244,244,243,243,243,243,243,242,242,242,242,242,242,242,241,241,241,241,241,241,241,241,241,241,241,241,241,241,241,241,241,241,242,242,242,242,242,243,243,243,243,243,244,244,244,244,244,244,245,245,245,245,245,245,246,246,246,246,246,246,246,246,247,247,247,247,247,247,247,247,247,247,247,247,247,247,247,247,247,247,247,247,246,246,246,246,246,246,246,246,246,246,246,246,246,245,245,245,245,245,245,245,245,245,245,245,245,245,244,244,244,0,0,0,0,244,244,244,244,244,244,244,244,243,243,243,243,243,243,243,243,243,243,243,242,242,242,242,242,241,241,241,241,241,241,241,241,241,241,241,241,241,240,240,240,240,240,240,240,239,239,239,239,239,239,238,238,238,238,238,238,238,238,238,238,238,238,238,238,238
0,0,0,0,0,0,0,0,0,0,0,0,0,0,202,202,202,202,202,202,202,202,202,202,202,202,202,202,203,203,203,203,203,203,203,203,203,203,203,203,203,204,204,204,204,204,204,204,205,205,205,205,205,205,205,205,205,205,206,206,206,206,207,207,207,207,207,207,207,207,208,208,208,208,208,208,208,208,208,208,208,208,208,208,208,208,208,208,208,208,208,208,208,208,208,208,208,209,209,209,209,209,209,209,209,210,210,210,210,210,210,210,0,211,211,211,211,211,211,211,211,211,211,211,211,211,211,212,212,212,212,212,212,212,212,211,211,211,211,211,211,211,211,211,212,212,212,212,212,213,213,213,214,214,214,215,215,215,0,217,217,217,218,218,218,218,218,219,219,219,219,219,219,220,220,220,220,220,220,221,221,221,222,222,222,223,223,223,224,225,225,225,226,226,0,0,0,0,0,240,240,241,241,241,241,241,241,241,241,241,241,242,242,242,242,242,242,242,242,242,243,243,243,243,243,243,0,0,0,0,243,243,243,243,243,243,243,243,243,243,243,242,242,242,242,242,241,241,241,241,240,240,240,239,239,239,238,238,238,238,237,237,237,236,236,236,236,236,236,236,235,235,235,235,235,235,235,235,235,235,235,235,235,235,234,234,234,234,234,234,234,234,234,234,234,234,234,234,234,234,234,234,234,234,234,234,234,234,234,234,234,234,234,234,234,234,235,235,235,235,235,235,235,235,236,236,236,236,236,236,236,237,237,237,237,237,237,237,237,237,237,237,237,237,237,237,237,237,237,237,237,237,237,237,237,237,237,237,237,237,237,237,237,237,237,237,237,237,237,237,237,237,237,237,237,237,237,237,237,237,237,237,238,238,238,238,238,238,238,239,239,239,239,240,240,240,240,240,240,240,241,241,241,242,242,242,242,243,243,243,244,244,244,244,244,245,245,245,245,245,246,246,246,246,246,246,246,246,246,246,246,246,246,246,246,246,246,246,245,245,245,245,245,245,245,245,245,245,245,245,245,245,245,245,245,245,244,244,244,244,244,244,243,243,243,243,243,242,242,242,242,242,242,242,241,241,241,241,241,241,241,241,241,241,241,241,241,241,241,241,241,241,242,242,242,242,242,243,243,243,243,243,244,244,244,244,244,244,245,245,245,245,245,245,246,246,246,246,246,246,246,246,247,247,247,247,247,247,247,247,247,247,247,247,247,247,247,247,247,246,246,246,246,246,246,246,246,246,246,245,245,245,245,245,245,245,245,245,245,245,245,245,245,245,245,244,244,244,244,244,244,244,244,244,244,243,243,243,243,243,243,243,243,243,243,243,243,243,243,243,243,243,242,242,242,242,242,241,241,241,241,241,241,241,241,241,241,241,241,241,240,240,240,240,240,240,240,239,239,239,239,239,239,239,239,238,238,238,238,238,238,238,238,238,238,238,238,238,238,238
0,0,0,0,0,0,0,0,0,0,0,0,0,0,202,202,202,202,202,202,202,202,202,202,202,202,202,202,202,202,203,203,203,203,203,203,203,203,203,203,203,204,204,204,204,204,204,204,205,205,205,205,205,205,205,205,205,205,206,206,206,206,207,207,207,207,207,207,207,207,208,208,208,208,208,208,208,208,208,208,208,208,208,208,208,208,208,208,208,208,209,208,208,208,209,209,209,209,209,209,209,209,209,209,209,210,210,210,210,210,210,210,211,211,211,211,211,211,211,211,211,211,211,211,211,211,211,212,212,212,212,212,212,212,212,211,211,211,211,211,211,211,211,211,212,212,212,212,212,213,213,213,214,214,214,215,215,215,0,217,217,217,218,218,218,218,218,219,219,219,219,219,219,220,220,220,220,220,220,221,221,221,222,222,222,223,223,223,224,225,225,225,226,226,0,0,0,0,0,0,241,241,241,241,241,241,241,241,241,241,241,242,242,242,242,242,242,242,242,242,243,243,243,243,243,243,0,243,243,243,243,243,243,243,243,243,243,243,243,243,243,242,242,242,242,242,241,241,241,241,240,240,240,239,239,239,238,238,238,238,237,237,237,236,236,236,236,236,236,236,235,235,235,235,235,235,235,235,235,235,235,235,235,235,234,234,234,234,234,234,234,234,234,234,234,234,234,234,234,234,234,234,234,235,235,235,235,235,235,235,235,235,235,235,235,235,235,235,235,235,236,236,236,236,236,237,237,237,237,237,237,237,237,237,237,237,237,237,237,237,237,237,238,238,238,238,238,238,237,237,237,237,237,237,237,237,237,237,237,237,237,237,237,237,237,237,237,237,237,237,237,237,237,237,237,237,237,237,238,238,238,238,238,238,238,238,238,239,239,239,239,239,240,240,240,240,241,241,241,241,241,242,242,242,242,242,243,243,243,244,244,244,244,245,245,245,245,245,245,245,246,246,246,246,246,246,246,246,246,246,246,246,246,246,246,246,246,246,245,245,245,245,245,245,245,245,245,245,245,245,245,245,244,244,244,244,244,244,244,244,244,243,243,243,243,243,242,242,242,242,242,241,241,241,241,241,241,240,240,240,240,240,240,240,240,240,241,241,241,241,241,241,241,241,241,241,242,242,242,242,243,243,243,243,243,244,244,244,244,244,244,245,245,245,245,245,245,245,246,246,246,246,246,246,246,246,246,246,246,246,247,247,247,247,247,247,246,246,246,246,246,246,246,246,246,245,245,245,245,245,245,245,245,245,245,245,245,245,245,245,244,244,244,244,244,244,244,244,244,244,244,244,244,243,243,243,243,243,243,243,243,243,243,243,243,243,243,243,243,243,243,243,242,242,242,242,242,241,241,241,241,241,241,241,241,241,241,241,241,241,240,240,240,240,240,240,240,239,239,239,239,239,239,239,239,238,238,238,238,238,238,238,238,238,238,238,238,238,238,238
0,0,0,0,0,0,0,0,0,0,0,0,0,0,0,0,202,202,202,202,202,202,202,202,202,202,202,202,202,202,203,203,203,203,203,203,203,203,203,203,203,203,204,204,204,204,204,204,204,204,205,205,205,205,205,205,0,0,206,206,206,206,207,207,207,207,207,207,207,207,208,208,208,208,208,208,208,208,208,208,208,208,208,208,208,208,208,208,208,209,209,209,209,209,209,209,209,209,209,209,209,210,210,210,210,210,210,210,210,210,210,210,211,211,211,211,211,211,211,211,211,211,211,211,211,211,211,212,212,212,212,212,212,212,212,211,211,211,211,211,211,211,211,211,211,211,212,212,212,212,213,213,213,214,214,214,215,215,215,216,216,217,217,217,218,218,218,218,219,219,219,219,219,219,220,220,220,220,220,220,220,221,221,221,222,222,222,223,224,224,224,224,224,225,0,0,0,0,0,0,241,241,241,241,241,241,241,241,241,241,241,241,242,242,242,242,242,242,242,242,242,242,243,243,243,243,243,243,243,243,243,243,243,243,243,243,243,243,243,243,243,243,243,242,242,242,241,241,241,241,241,240,240,240,240,239,238,238,238,238,237,237,237,237,237,236,236,236,236,236,236,236,236,235,235,235,235,235,235,235,235,235,235,235,235,235,235,235,235,235,235,235,235,235,235,235,235,235,235,235,235,235,235,235,235,235,235,235,235,235,235,235,235,235,235,235,236,236,236,236,236,236,237,237,237,237,237,237,237,237,237,238,238,238,238,238,238,238,238,238,238,238,238,238,238,238,238,238,238,238,238,238,238,238,238,238,238,237,237,237,237,237,237,237,237,237,237,237,237,237,237,237,237,237,237,237,237,237,238,238,238,238,238,238,238,238,238,239,239,239,239,239,240,240,240,240,241,241,241,241,241,242,242,242,242,242,243,243,243,244,244,244,244,245,245,245,245,245,245,245,245,246,246,246,246,246,246,246,246,246,246,246,246,245,245,245,245,245,245,245,245,245,245,245,245,245,245,245,245,244,244,244,244,244,244,244,244,243,243,243,243,243,242,242,242,242,242,241,241,241,241,241,241,241,240,240,240,240,240,240,240,240,240,240,240,240,240,240,240,240,240,240,240,241,241,241,241,242,242,242,242,242,242,242,243,244,244,244,244,244,244,245,245,245,245,245,245,245,246,246,246,246,246,246,246,246,246,246,246,246,247,247,247,247,247,247,246,246,246,246,246,246,246,246,246,245,245,245,245,245,245,245,245,245,245,245,245,245,245,245,244,244,244,244,244,244,244,244,244,244,244,244,244,243,243,243,243,243,243,243,243,243,243,243,243,243,243,243,243,242,242,242,242,242,242,242,242,241,241,241,241,241,241,241,241,241,241,241,241,240,240,240,240,240,240,239,239,239,239,239,239,239,239,239,239,238,238,238,238,238,238,238,238,238,238,238,238,238,238,238
0,0,0,0,0,0,0,0,0,0,0,0,0,0,0,0,202,202,202,202,202,202,202,202,202,202,202,202,202,202,203,203,203,203,203,203,203,203,203,203,203,203,204,204,204,204,204,204,204,204,205,205,205,205,205,205,205,205,206,206,206,206,207,207,207,207,207,207,207,207,208,208,208,208,208,208,208,208,208,208,208,208,208,208,208,208,208,208,208,209,209,209,209,209,209,209,209,209,209,209,209,210,210,210,210,210,210,210,210,210,210,210,211,211,211,211,211,211,211,211,211,211,211,211,211,211,211,212,212,212,212,212,212,212,212,211,211,211,211,211,211,211,211,211,211,211,211,212,212,212,213,213,213,213,213,214,214,214,215,216,216,216,217,217,217,218,218,218,218,218,219,219,219,219,219,219,220,220,220,220,220,221,221,221,222,222,222,223,224,224,224,224,224,225,0,0,0,0,0,0,0,0,241,241,241,241,241,241,241,241,241,241,242,242,242,242,242,242,242,242,242,242,243,243,243,243,243,243,243,243,243,243,243,243,243,243,243,243,243,243,243,243,243,243,243,242,242,242,241,241,241,240,240,240,240,239,239,239,238,238,238,237,237,237,237,237,236,236,236,236,236,236,236,235,235,235,235,235,235,235,235,235,235,235,235,235,235,235,235,235,235,235,235,235,235,235,235,235,235,235,235,235,235,235,235,235,235,235,235,235,235,235,235,235,235,235,236,236,236,236,236,236,237,237,237,237,237,237,237,237,237,238,238,238,238,238,238,238,238,238,238,238,238,238,238,238,238,238,238,238,238,238,238,238,238,238,238,238,238,237,237,237,237,237,237,237,237,237,237,237,237,237,237,237,237,237,238,238,238,238,238,238,238,238,238,239,239,239,239,239,240,240,240,240,240,241,241,241,241,242,242,242,242,242,243,243,243,243,243,244,244,244,244,245,245,245,245,245,245,245,245,246,246,246,246,246,246,246,246,246,246,246,246,245,245,245,245,245,245,245,245,245,245,245,245,245,245,245,245,244,244,244,244,244,244,244,244,243,243,243,243,243,242,242,242,242,242,241,241,241,241,241,241,241,240,240,240,240,240,240,240,240,240,240,240,240,240,240,240,240,240,240,240,241,241,241,241,242,242,242,242,242,242,242,243,243,243,243,244,244,244,244,244,244,245,245,245,245,245,245,245,246,246,246,246,246,246,246,246,246,246,246,246,246,246,246,246,246,246,246,246,246,246,246,245,245,245,245,245,245,245,245,245,245,245,244,244,244,244,244,244,244,244,244,244,244,244,244,243,243,243,243,243,243,243,243,243,243,243,243,243,242,242,242,242,242,242,242,242,242,242,242,242,242,242,242,241,241,241,241,241,241,241,241,241,241,240,240,240,240,240,240,240,240,240,239,239,239,239,239,239,239,238,238,238,238,238,238,238,238,238,238,238,238,238,238,238,238,238,238
0,0,0,0,0,0,0,0,0,0,0,0,0,0,202,202,202,202,202,202,202,202,202,202,202,202,202,202,202,202,203,203,203,203,203,203,203,203,203,203,203,203,204,204,204,204,204,204,204,204,205,205,205,205,205,205,205,205,0,0,0,0,0,207,207,207,207,207,207,207,208,208,208,208,208,208,208,208,208,208,208,208,208,208,208,208,208,209,209,209,209,209,209,209,209,209,209,210,210,210,210,210,210,210,210,210,210,210,210,210,210,211,211,211,211,211,211,211,211,211,211,211,211,211,211,212,212,212,212,212,212,212,212,212,212,211,211,211,211,211,211,211,211,211,211,211,211,212,212,212,213,213,213,213,213,214,214,214,215,216,216,216,217,217,217,218,218,218,218,218,219,219,219,219,219,219,220,220,220,220,220,221,221,221,222,0,0,0,224,224,224,224,224,224,224,224,0,0,0,0,241,241,241,241,241,241,241,241,241,241,241,241,241,241,241,242,242,242,242,242,242,242,243,243,243,243,243,243,243,243,243,243,243,243,243,243,243,243,243,243,243,243,243,243,243,242,242,242,241,241,241,240,240,240,240,239,239,239,238,238,238,237,237,237,237,237,236,236,236,236,236,236,236,236,236,236,235,235,235,235,235,235,235,235,235,235,235,235,235,235,235,235,235,235,235,235,235,235,235,235,235,235,235,235,235,235,235,235,235,236,236,236,236,236,236,236,236,236,236,237,237,237,237,237,237,238,238,238,238,238,238,238,238,238,238,238,238,238,238,238,238,238,238,238,238,238,238,238,238,238,238,238,238,238,238,238,238,238,238,238,238,238,238,238,238,238,0,238,238,238,238,238,238,238,238,238,238,238,238,238,238,238,238,238,239,239,239,239,239,239,240,240,240,241,241,241,241,241,242,242,242,242,243,243,243,243,243,244,244,244,244,244,244,245,245,245,245,245,245,245,245,245,245,246,246,245,245,245,245,245,245,245,245,245,245,245,245,245,245,245,245,245,245,245,244,244,244,244,244,244,244,244,244,244,243,243,243,243,243,243,243,242,242,242,242,242,241,241,241,241,241,240,240,240,240,240,240,239,239,239,239,239,239,239,239,240,240,240,240,240,240,240,240,240,240,240,241,241,241,241,242,242,242,242,242,243,243,243,243,243,243,244,244,244,244,244,245,245,245,245,245,245,245,245,245,245,246,246,246,246,246,246,246,246,246,246,246,246,246,246,246,245,245,245,245,245,245,245,245,245,245,245,245,245,244,244,244,244,244,244,244,244,244,244,244,244,244,244,243,243,243,243,243,243,243,243,243,243,243,243,243,242,242,242,242,242,242,242,242,242,242,242,242,242,242,242,241,241,241,241,241,241,241,241,241,241,240,240,240,240,240,240,240,240,240,239,239,239,239,239,239,239,238,238,238,238,238,238,238,238,238,238,238,238,238,238,238,238,238,238
0,0,0,0,0,0,0,0,0,0,0,0,0,0,202,202,202,202,202,202,202,202,202,202,202,202,202,202,202,202,203,203,203,203,203,203,203,203,203,203,203,203,204,204,204,204,204,204,204,204,205,205,205,205,205,205,0,0,0,0,0,0,0,0,207,207,207,207,208,208,208,208,208,208,208,208,208,208,208,208,208,208,208,208,208,208,209,209,209,209,209,209,209,209,209,209,209,210,210,210,210,210,210,210,210,210,210,210,210,210,210,210,211,211,211,211,211,211,211,211,211,211,211,211,211,212,212,212,212,212,212,212,212,212,212,211,211,211,211,211,211,211,211,211,211,211,211,212,212,212,212,212,213,213,213,214,214,214,215,215,215,216,217,217,217,217,217,218,218,218,218,219,219,219,219,219,219,219,220,220,220,221,221,221,221,0,0,0,0,0,223,223,223,223,224,224,0,0,0,0,241,241,240,240,240,240,240,240,240,241,241,241,241,241,241,241,241,242,242,242,242,242,243,243,243,243,243,243,243,243,243,243,243,243,243,243,243,243,243,243,243,243,243,243,243,242,242,242,242,242,241,241,241,240,240,239,239,239,238,238,238,238,238,237,237,237,237,237,236,236,236,236,236,236,236,236,236,236,235,235,235,235,235,236,235,235,235,235,235,235,235,236,236,236,236,236,236,236,236,236,236,236,236,236,236,236,236,236,236,236,236,236,236,236,236,237,237,237,237,237,237,237,238,238,238,238,238,238,238,238,238,238,238,238,238,238,238,238,238,238,238,238,238,238,238,238,238,238,238,238,238,238,238,238,238,238,238,238,238,238,238,238,238,238,238,238,238,238,238,238,238,238,238,238,238,238,238,238,238,238,238,238,238,238,239,239,239,239,239,239,240,240,240,241,241,241,241,241,242,242,242,242,243,243,243,243,243,244,244,244,244,244,244,244,244,245,245,245,245,245,245,245,245,245,245,245,245,245,245,245,245,245,245,245,245,245,245,245,245,245,245,244,244,244,244,244,244,244,244,244,244,243,243,243,243,243,243,243,242,242,242,242,242,241,241,241,241,241,240,240,240,240,240,240,240,240,240,239,239,239,239,239,239,239,239,240,240,240,240,240,240,240,240,240,240,240,241,241,241,241,242,242,242,242,242,243,243,243,243,243,243,244,244,244,244,244,245,245,245,245,245,245,245,245,245,245,246,246,246,246,246,246,246,246,246,246,246,246,246,246,246,245,245,245,245,245,245,245,245,245,245,245,245,245,244,244,244,244,244,244,244,244,244,244,244,243,243,243,243,243,243,243,243,243,243,243,243,243,242,242,242,242,242,242,242,242,242,242,242,242,242,241,241,241,241,241,241,241,241,241,241,241,241,241,240,240,240,240,240,240,240,240,240,240,239,239,239,239,239,239,238,238,238,238,238,238,238,238,238,238,238,238,238,238,238,238,238,238,238,238
0,0,0,0,0,0,0,0,0,0,0,0,0,0,0,0,0,202,202,202,202,202,202,202,202,202,202,202,202,202,202,203,203,203,203,203,203,203,203,203,203,203,204,204,204,204,204,204,204,204,204,205,205,205,205,205,205,205,205,0,0,0,0,0,207,207,207,207,208,208,208,208,208,208,208,208,208,208,208,208,208,208,208,208,208,208,209,209,209,209,209,209,209,209,209,209,209,210,210,210,210,210,210,210,210,210,210,210,210,210,210,210,211,211,211,211,211,211,211,211,211,211,211,212,212,212,212,212,212,212,212,212,212,211,211,211,211,211,211,211,211,211,211,211,211,211,211,212,212,212,212,212,213,213,213,214,214,214,215,215,215,216,216,216,217,217,217,218,218,218,218,219,219,219,219,219,219,219,220,220,220,221,221,221,221,0,0,0,0,0,223,223,223,223,224,224,0,0,0,0,0,0,240,240,240,240,240,240,240,241,241,241,241,241,241,241,241,242,242,242,242,242,243,243,243,243,243,243,243,243,243,243,243,243,243,243,243,243,243,243,243,243,243,243,243,242,242,242,242,242,241,241,241,240,240,239,239,239,238,238,238,238,238,237,237,237,237,237,236,236,236,236,236,236,236,236,236,236,235,235,235,235,235,236,235,235,235,235,235,235,235,236,236,236,236,236,236,236,236,236,236,236,236,236,236,236,236,236,236,236,236,236,236,236,236,237,237,237,237,237,237,237,238,238,238,238,238,238,238,238,238,239,239,239,239,239,239,239,239,239,239,239,239,239,239,239,239,239,239,239,239,238,238,238,238,239,238,238,239,238,238,238,238,238,238,238,238,238,238,238,238,238,238,238,238,238,238,239,239,239,239,239,239,239,239,239,239,240,240,240,240,240,241,241,241,241,242,242,242,242,242,243,243,243,243,243,243,244,244,244,244,244,244,244,244,245,245,245,245,245,245,245,245,245,245,245,245,245,245,245,245,245,245,245,245,245,245,245,245,245,245,244,244,244,244,244,244,244,244,244,244,243,243,243,243,243,243,243,242,242,242,242,242,241,241,241,241,241,240,240,240,240,240,240,239,239,239,239,239,239,239,239,239,239,239,239,239,239,239,239,239,239,239,240,240,240,240,240,240,241,241,241,241,241,242,242,242,242,243,243,243,243,243,243,243,244,244,244,244,244,244,245,245,245,245,245,245,245,245,245,245,245,246,246,246,246,245,245,245,245,245,245,245,245,245,245,245,245,245,245,245,245,244,244,244,244,244,244,244,244,243,243,243,243,243,243,243,243,243,243,243,243,243,243,243,242,242,242,242,242,242,242,242,242,242,242,241,241,241,241,241,241,241,241,241,241,241,241,241,241,241,240,240,240,240,240,240,240,240,240,240,240,239,239,239,239,239,239,239,239,238,238,238,238,238,238,238,238,238,238,238,238,238,238,238,238,238,238,238,238
0,0,0,0,0,0,0,0,0,0,0,0,0,202,202,202,202,202,202,202,202,202,202,202,202,202,202,202,202,202,202,202,202,203,203,203,203,203,203,203,203,203,0,0,0,0,0,204,204,204,204,205,205,205,205,205,205,205,205,0,0,0,0,0,207,207,207,207,208,208,208,208,208,208,208,208,208,208,208,208,208,209,209,209,209,209,209,209,209,209,209,209,209,209,209,209,209,210,210,210,210,210,210,210,210,210,210,210,210,210,210,211,211,211,211,211,211,211,211,211,211,211,212,212,212,212,212,212,212,212,212,212,212,211,211,211,211,211,211,211,211,211,211,211,211,211,211,212,212,212,212,212,213,213,213,214,214,214,215,215,215,216,216,216,217,217,217,218,218,218,218,218,218,219,219,219,219,219,220,220,220,220,220,220,221,221,221,0,0,0,223,223,223,223,223,223,223,223,0,0,0,0,240,240,240,240,240,240,240,240,240,240,241,241,241,241,241,241,241,242,242,242,242,243,243,243,243,243,243,243,243,243,243,243,243,243,243,243,243,243,243,243,243,243,243,242,242,242,242,242,241,241,241,240,240,240,239,239,239,239,238,238,238,238,238,237,237,237,237,237,236,236,236,236,236,236,236,236,236,236,236,236,236,236,236,236,236,236,236,236,236,236,236,236,236,236,236,236,236,236,236,236,236,236,236,236,236,236,236,237,237,237,237,237,237,237,237,237,238,238,238,238,238,238,238,239,239,239,239,239,239,239,239,239,239,239,239,239,239,239,239,239,239,239,239,239,239,239,239,239,239,239,239,239,239,239,239,239,239,239,239,239,239,239,239,239,239,239,239,239,239,239,239,239,239,239,239,239,239,239,239,239,239,239,240,240,240,240,240,240,240,240,241,241,241,241,242,242,242,242,242,243,243,243,243,243,243,244,244,244,244,244,244,244,244,244,244,245,245,245,245,245,245,245,245,245,245,245,245,245,245,245,245,245,245,245,244,244,244,244,244,244,244,244,244,244,244,244,244,243,243,243,243,243,243,243,242,242,242,242,242,241,241,241,241,241,240,240,240,240,240,240,239,239,239,239,239,239,239,239,239,239,239,239,239,239,239,239,239,239,239,239,239,239,239,239,240,240,240,240,240,240,241,241,241,242,242,242,242,242,242,242,243,243,243,243,244,244,244,244,244,244,244,244,245,245,245,245,245,245,245,245,246,246,246,246,245,245,245,245,245,245,245,245,245,245,245,245,245,245,245,245,244,244,244,244,244,244,244,244,243,243,243,243,243,243,243,243,243,243,243,243,243,243,243,242,242,242,242,242,242,242,242,242,242,242,241,241,241,241,241,241,241,241,241,241,241,241,241,241,241,240,240,240,240,240,240,240,240,240,240,240,239,239,239,239,239,239,239,239,238,238,238,238,238,238,238,238,238,238,238,238,238,238,238,238,238,238,238,238
0,0,0,0,0,0,0,0,0,0,0,0,0,202,202,202,202,202,202,202,202,202,202,202,202,202,202,202,202,202,202,202,202,203,203,203,203,203,203,203,203,0,0,0,0,0,0,204,204,204,204,205,205,0,0,0,0,0,0,0,0,0,0,0,207,207,207,207,208,208,208,208,208,208,208,208,208,208,208,209,209,209,209,209,209,209,209,209,209,209,209,209,209,209,209,209,209,210,210,210,210,210,210,210,210,210,210,210,210,210,210,211,211,211,211,211,211,211,211,211,211,211,212,212,212,212,212,212,212,212,212,212,212,211,211,211,211,211,211,211,211,211,211,211,211,211,211,212,212,212,212,212,213,213,213,214,214,214,215,215,215,216,216,216,216,217,217,217,218,218,218,218,218,219,219,219,219,219,220,220,220,220,220,220,220,221,221,221,0,222,222,222,222,222,222,223,223,223,223,223,223,0,240,240,0,240,240,239,239,239,239,240,240,240,240,241,241,241,241,242,242,242,242,243,243,243,243,243,243,243,243,243,243,243,243,243,243,243,243,243,243,243,243,243,243,242,242,242,242,242,241,241,241,241,240,240,239,239,239,239,239,239,239,238,238,238,238,238,237,237,237,237,237,237,236,236,236,236,236,236,236,236,236,236,236,236,236,236,236,236,236,236,236,236,236,237,237,237,237,237,236,236,236,236,236,236,236,236,236,237,237,237,237,237,237,237,237,237,238,238,238,238,238,238,238,239,239,239,239,239,239,239,239,239,239,239,239,239,239,239,239,239,239,239,239,239,239,239,239,239,239,239,239,239,239,239,239,239,239,239,239,239,239,239,239,239,239,239,239,239,239,239,239,239,239,239,239,239,239,239,239,239,239,239,240,240,240,240,241,241,241,241,241,241,241,242,242,242,242,243,243,243,243,243,243,243,243,244,244,244,244,244,244,244,244,244,244,244,244,244,244,244,244,244,244,244,244,244,244,244,244,244,244,244,244,244,244,244,244,244,244,244,244,243,243,243,244,244,244,243,243,243,243,243,243,243,242,242,242,242,242,241,241,241,241,241,240,240,240,240,240,240,239,239,239,239,239,239,239,239,239,239,239,239,239,239,239,239,239,239,239,239,239,239,239,239,240,240,240,240,240,240,241,241,241,242,242,242,242,242,242,242,243,243,243,243,244,244,244,244,244,244,244,244,245,245,245,245,245,245,245,245,245,245,245,245,245,245,245,245,245,245,245,245,245,245,245,245,245,245,244,244,244,244,244,244,244,243,243,243,243,243,243,243,243,243,243,243,242,242,242,242,242,242,242,242,242,242,242,242,242,241,241,241,241,241,241,241,241,241,241,241,241,241,241,241,240,240,240,240,240,240,240,240,240,240,240,240,240,239,239,239,239,239,239,239,239,239,239,239,238,238,238,238,238,238,238,238,238,238,238,238,238,238,238,238,238,238,238,238
0,0,0,0,0,0,0,0,0,0,0,0,0,202,202,202,202,202,202,202,202,202,202,202,202,202,202,202,202,202,202,202,202,203,203,203,203,203,203,203,203,203,203,203,204,0,0,204,204,204,204,205,205,205,205,205,205,205,205,0,0,0,0,0,207,207,207,207,208,208,208,208,208,208,208,208,208,208,208,209,209,209,209,209,209,209,209,209,209,209,209,209,209,210,210,210,210,210,210,210,210,210,210,210,210,210,210,210,210,210,210,211,211,211,211,211,211,211,211,211,212,212,212,212,212,212,212,212,212,212,212,212,212,211,211,211,211,211,211,211,211,211,211,211,211,211,211,212,212,212,212,212,213,213,213,214,214,214,215,215,215,216,0,216,216,217,217,217,218,218,218,218,218,219,219,219,219,219,220,220,220,220,220,220,220,221,221,221,0,222,222,222,222,222,222,223,223,223,223,223,223,0,0,0,0,0,0,239,239,239,239,240,240,240,240,241,241,241,241,241,242,242,242,243,243,243,243,243,243,243,243,243,243,243,243,243,243,243,243,243,243,243,243,243,243,242,242,242,242,242,241,241,241,241,240,240,239,239,239,239,239,239,239,238,238,238,238,238,237,237,237,237,237,237,236,236,236,236,236,236,236,236,236,236,236,236,236,236,236,236,236,236,236,236,236,237,237,237,237,237,237,237,237,237,237,237,237,237,237,237,237,237,237,237,237,238,238,238,238,238,238,239,239,239,239,239,239,239,239,239,239,239,240,240,240,240,240,240,240,239,239,239,239,239,239,239,239,239,239,239,239,239,239,239,239,239,239,239,239,239,239,239,239,239,239,239,239,239,239,239,239,239,239,239,239,239,239,239,239,240,240,240,240,240,240,240,240,241,241,241,241,241,241,242,242,242,242,242,242,243,243,243,243,243,243,243,243,244,244,244,244,244,244,244,244,244,244,244,244,244,244,244,244,244,244,244,244,244,244,244,244,244,244,244,244,244,244,244,244,244,244,244,244,243,243,243,243,243,243,243,243,243,243,243,242,242,242,242,242,241,241,241,241,241,240,240,240,240,240,239,239,239,239,239,239,239,239,238,238,238,238,238,238,238,238,238,238,238,239,238,238,239,239,239,239,239,239,239,239,240,240,240,240,240,241,241,241,241,242,242,242,242,242,243,243,243,243,243,243,244,244,244,244,244,244,244,244,244,244,245,245,245,245,245,245,245,245,245,245,245,245,245,245,245,245,245,245,245,245,244,244,244,244,244,244,243,243,243,243,243,243,243,242,242,242,242,242,242,242,242,242,242,242,242,242,242,242,241,241,241,241,241,241,241,241,241,241,241,241,241,241,241,241,241,241,241,240,240,240,240,240,240,240,240,240,240,240,240,240,239,239,239,239,239,239,239,239,239,239,239,238,238,238,238,238,238,238,238,238,238,238,238,238,238,238,238,238,238,238,238
0,0,0,0,0,0,0,0,0,0,0,0,0,0,0,0,0,202,202,202,202,202,202,202,202,202,202,202,202,202,202,202,202,203,203,203,203,203,203,203,203,203,203,203,204,204,204,204,204,204,204,205,205,205,205,205,205,205,205,0,0,0,0,0,0,0,0,208,208,208,0,0,0,0,0,209,209,209,209,209,209,209,209,209,209,209,209,209,209,209,210,210,210,210,210,210,210,210,210,210,210,210,210,0,0,210,210,210,210,210,210,211,211,211,211,211,211,211,211,211,212,212,212,212,212,212,212,212,212,212,212,212,212,211,211,211,211,211,211,211,211,211,211,211,211,211,211,212,212,212,212,212,213,213,213,214,214,214,214,215,215,215,0,216,216,217,217,217,217,217,218,218,218,218,218,219,219,219,219,220,220,220,220,220,220,221,221,221,222,222,222,222,222,222,222,222,223,223,223,223,223,0,0,0,0,0,0,239,238,238,238,239,239,239,239,239,240,240,240,241,241,241,242,242,242,243,243,243,243,243,243,243,243,243,243,243,243,243,243,243,243,242,242,242,242,242,242,242,242,242,241,241,241,241,240,240,240,240,239,239,239,239,239,239,238,238,238,238,238,238,238,237,237,237,237,237,237,237,236,236,236,236,236,236,236,236,237,237,237,237,237,237,237,237,237,237,237,237,237,237,237,237,237,237,237,237,237,237,237,238,238,238,238,238,238,238,238,238,238,238,239,239,239,239,239,239,239,239,239,240,240,240,240,240,240,240,240,240,240,240,240,240,240,240,240,240,240,240,240,240,240,240,240,240,240,240,240,239,239,239,239,239,239,239,239,239,239,239,239,239,239,239,239,239,239,239,239,239,239,240,240,240,240,240,240,240,240,241,241,241,241,241,241,242,242,242,242,242,242,243,243,243,243,243,243,243,243,244,244,244,244,244,244,244,244,244,244,244,244,244,244,244,244,244,244,244,244,244,244,244,244,244,244,243,243,243,243,243,243,243,243,243,243,243,243,243,243,243,243,243,243,242,242,242,242,242,242,242,241,241,241,241,241,240,240,240,240,240,239,239,239,239,239,239,238,238,238,238,238,238,238,238,238,238,238,238,238,238,238,238,238,238,238,238,239,239,239,239,239,239,239,239,240,240,241,241,241,241,242,242,242,242,242,243,243,243,243,243,243,244,244,244,244,244,244,244,244,244,244,245,245,245,245,245,245,245,245,245,245,245,245,245,245,245,245,245,245,245,245,244,244,244,244,244,244,243,243,243,243,243,243,243,242,242,242,242,242,242,242,242,242,242,242,242,242,242,242,241,241,241,241,241,241,241,241,241,241,241,241,241,241,241,241,240,240,240,240,240,240,240,240,240,240,240,240,240,239,239,239,239,239,239,239,239,239,239,239,239,239,238,238,238,238,238,238,238,238,238,238,238,238,238,238,238,238,238,238,238,238,238
0,0,0,0,0,0,0,0,0,0,0,0,0,0,0,0,0,202,202,202,202,202,202,202,202,202,202,202,0,0,0,0,0,0,0,203,203,203,203,203,203,203,203,203,204,204,204,204,204,204,204,205,205,205,205,205,205,205,205,206,206,206,206,206,0,0,0,208,208,208,208,208,208,208,209,209,209,209,209,209,209,209,209,209,209,209,209,209,209,209,210,210,210,210,210,210,210,210,210,210,210,210,210,0,0,210,210,210,210,210,210,211,211,211,211,211,211,211,211,211,212,212,212,212,212,212,212,212,212,212,212,212,212,211,211,211,211,211,211,211,211,211,211,211,211,211,211,212,212,212,212,212,213,213,213,214,214,214,214,215,215,215,0,216,216,216,216,217,217,217,217,217,218,218,218,218,219,219,219,219,219,220,220,220,220,221,221,221,221,221,222,222,222,222,222,222,223,223,223,223,223,0,0,0,0,0,0,0,238,238,238,239,239,239,239,239,240,240,240,241,241,241,242,242,242,243,243,243,243,243,243,243,243,243,243,243,243,243,243,243,243,242,242,242,242,242,242,242,242,242,242,241,241,241,241,241,240,240,240,240,0,0,0,239,239,239,239,239,239,238,238,238,238,237,237,237,237,237,236,236,236,236,236,236,236,236,237,237,237,237,237,237,237,237,237,237,237,237,237,237,237,237,237,237,237,237,237,237,237,238,238,238,238,238,238,238,238,238,238,238,239,239,239,239,239,239,239,239,239,240,240,240,240,240,240,240,240,240,240,240,240,240,240,240,240,240,240,240,240,240,240,240,240,240,240,240,240,240,240,240,240,240,240,240,240,240,240,240,240,240,240,240,240,240,240,240,240,240,240,240,240,240,240,240,240,241,241,241,241,241,242,242,242,242,242,242,242,242,243,243,243,243,243,243,243,243,243,243,243,243,244,244,243,243,243,243,243,244,244,244,244,244,244,244,244,244,244,244,244,244,244,244,244,243,243,243,243,243,243,243,243,243,243,243,243,243,243,243,243,243,243,242,242,242,242,242,242,242,241,241,241,241,241,240,240,240,240,240,239,239,239,239,239,239,238,238,238,238,238,238,238,238,238,238,238,238,238,238,238,238,238,238,238,238,239,239,239,239,239,239,239,239,240,240,240,241,241,241,241,241,241,241,242,242,242,242,243,243,243,243,243,244,244,244,244,244,244,244,244,244,244,244,245,245,245,245,245,245,245,245,245,245,245,245,245,245,245,245,245,244,244,244,244,244,244,243,243,243,243,242,242,242,242,242,242,242,242,242,242,242,242,242,241,241,241,241,241,241,241,241,241,241,241,241,241,241,240,240,240,240,240,240,240,240,240,240,240,240,240,240,240,240,240,240,239,239,239,239,239,239,239,239,239,239,239,239,239,239,239,238,238,238,238,238,238,238,238,238,238,238,238,238,238,238,238,238,238,238,238,238
