234,234,234,234,234,234,235,235,235,235,235,235,235,235,235,235,235,235,235,235,235,235,235,235,235,235,235,235,235,235,235,235,235,235,235,235,235,236,236,236,236,236,236,236,236,237,237,237,237,237,237,237,237,238,238,238,238,238,239,239,239,240,240,240,240,241,241,242,242,242,242,242,242,243,243,243,0,0,245,245,246,246,246,246,247,247,247,248,248,248,248,249,249,249,249,249,250,250,250,250,251,251,251,251,251,251,251,251,251,251,251,251,251,251,251,251,252,252,252,252,252,252,252,251,251,251,251,251,251,251,251,251,251,251,251,251,250,250,250,250,250,249,249,249,249,249,249,249,249,248,248,248,249,249,249,249,249,249,249,249,250,250,250,250,250,250,250,250,250,250,250,250,250,250,250,250,250,250,250,250,250,250,250,250,250,250,250,250,249,249,249,249,249,249,249,249,249,249,249,249,249,250,250,250,250,250,251,251,251,251,251,251,252,252,252,253,253,254,254,254,255,256,256,256,257,257,257,257,257,257,257,257,257,257,257,257,256,256,256,256,256,256,256,256,256,256,256,256,256,256,256,256,256,256,255,255,255,255,256,254,254,254,255,0,0,0,0,251,251,250,250,250,250,250,249,249,249,249,250,250,250,250,250,250,250,250,250,250,250,250,250,250,250,250,251,251,251,251,251,251,251,251,251,251,251,251,251,251,251,251,251,251,251,251,251,252,252,252,252,252,252,252,252,253,253,253,253,253,253,254,254,254,254,254,254,254,254,254,254,254,254,254,254,254,254,254,254,254,254,254,254,255,255,255,255,255,256,256,256,256,256,256,257,257,257,257,257,257,257,257,258,258,258,258,258,258,258,258,258,258,258,258,258,259,259,259,259,259,259,259,259,259,260,260,260,260,260,260,260,260,261,261,261,261,261,261,261,261,261,261,261,262,262,262,262,262,262,262,263,263,263,263,263,263,264,264,264,264,264,264,264,264,264,264,264,264,264,265,265,265,265,265,265,265,265,265,265,265,265,265,265,265,265,265,265,264,264,264,264,264,264,264,264,264,264,264,264,264,264,264,263,263,263,263,263,263,263,263,262,262,262,261,261,261,261,260,260,260,259,259,259,259,259,259,259,258,258,258,258,258,258,258,258,258,258,259,259,260,261,261,262,264,265,265,266,267,267,268,268,268,268,268,269,269,269,269,269,269,269,269,268,268,268,268,268,268,268,267,267,267,267,267,267,267,267,266,266,266,266,266,266,266,266,265,265,265,265,265,265,265,264,264,264,263,263,263,263,263,263,263,262,262,262,262,262,262,262,262,262,261,261,261,261,261,261,261,261,261,261,261,261,261,261,261,261,261,260,260,260,260,260,259,259,259,259,259,258,258,258,257,257,257,257,257,256,256,256,256,256,256,255,255,255,256,256,256,256,256,257,258,258,259,259,259,260,261,260,260,260,260
234,234,234,234,234,234,235,235,235,235,235,235,235,235,235,235,235,235,235,235,235,235,235,235,235,235,235,235,235,235,235,235,235,235,235,235,235,236,236,236,236,236,236,236,236,237,237,237,237,237,237,237,237,238,238,238,238,238,239,239,239,239,240,240,240,241,241,241,242,242,242,242,242,243,243,243,244,244,244,245,246,246,246,246,247,247,247,247,248,248,248,249,249,249,249,249,250,250,250,250,250,250,251,251,251,251,251,251,251,251,251,251,251,251,251,252,252,252,252,252,252,252,252,251,251,251,251,251,251,251,251,251,251,251,251,250,250,250,250,250,250,249,249,249,249,249,249,249,249,249,249,249,249,249,249,249,249,249,249,249,250,250,250,250,250,250,250,250,250,250,250,250,250,250,250,250,250,250,250,250,250,250,250,250,250,250,250,250,249,249,249,249,249,249,249,249,249,249,249,249,249,250,250,250,250,250,251,251,251,251,251,251,252,252,252,253,253,254,254,254,255,256,256,256,257,257,257,257,257,257,257,257,257,257,257,257,256,256,256,256,256,256,256,256,256,256,256,256,256,256,256,256,256,256,255,255,255,255,0,254,254,254,0,0,0,0,0,251,251,250,250,250,250,250,249,249,249,249,250,250,250,250,250,250,250,250,250,250,250,250,250,250,250,250,251,251,251,251,251,251,251,251,251,251,251,251,251,251,251,251,251,251,251,251,251,252,252,252,252,252,252,252,252,252,253,253,253,253,253,253,253,253,254,254,254,254,254,254,254,253,253,253,254,254,254,254,254,254,254,254,254,254,254,255,255,255,255,255,256,256,256,256,256,256,256,256,257,257,257,257,257,257,257,258,258,258,258,258,258,258,258,258,258,258,258,258,259,259,259,259,259,259,260,260,260,260,260,260,260,260,261,261,261,261,261,261,261,261,261,261,261,262,262,262,262,262,262,262,262,263,263,263,263,263,263,263,264,264,264,264,264,264,264,264,264,264,264,264,264,264,264,264,265,265,265,265,265,265,265,265,265,265,265,264,264,264,264,264,264,264,264,264,264,264,264,264,264,264,264,264,263,263,263,263,263,263,262,262,262,262,262,261,261,261,261,260,260,260,260,260,259,259,259,259,259,259,258,258,258,258,258,258,259,259,259,259,259,261,262,263,263,265,266,266,267,268,268,269,269,269,269,269,269,269,269,269,269,269,269,269,269,269,269,269,269,269,269,268,268,268,268,268,267,267,267,267,267,267,267,267,266,266,266,266,266,266,266,266,265,265,265,0,0,0,0,264,263,263,263,263,263,263,263,262,262,262,262,262,262,262,262,262,262,262,262,262,261,261,261,261,261,261,261,261,261,261,260,260,260,260,260,259,259,259,259,259,258,258,258,257,257,257,257,257,256,256,257,257,0,257,257,257,257,258,258,258,258,0,260,260,261,261,261,261,261,261,261,262,0,0
234,234,234,234,234,234,235,235,235,235,235,235,235,236,236,236,236,236,236,235,235,235,235,235,235,235,235,235,235,235,235,235,235,235,235,235,236,236,236,236,236,236,236,236,236,237,237,237,237,237,237,237,237,238,238,238,238,238,239,239,239,239,240,240,240,241,241,241,242,242,242,242,242,243,243,243,244,244,244,245,246,246,246,247,247,247,247,247,248,248,248,249,249,249,250,250,250,250,250,250,250,250,251,251,251,251,251,251,251,251,251,251,251,252,252,252,252,252,252,252,252,252,252,251,251,251,251,251,251,251,251,251,251,251,251,250,250,0,250,250,250,249,249,249,249,249,249,249,249,249,249,249,249,249,249,249,249,249,249,249,250,250,250,250,250,250,250,250,250,250,250,250,250,250,250,250,250,250,250,250,250,250,250,249,249,249,249,249,249,249,249,249,249,249,249,249,249,249,249,249,249,249,249,250,250,250,250,250,250,251,251,251,251,251,252,252,252,253,253,253,254,254,255,255,255,256,257,257,257,257,256,256,256,256,256,256,256,256,256,256,256,256,256,256,256,256,256,256,256,255,255,255,255,255,254,254,254,254,253,253,253,253,0,0,0,0,0,251,250,250,250,249,249,249,249,249,249,249,249,249,249,249,249,249,249,250,250,250,250,250,250,250,250,250,250,250,251,251,251,251,251,251,251,251,251,251,251,251,251,251,251,251,251,251,251,252,252,252,252,252,252,252,252,252,253,253,253,253,253,253,253,253,253,253,253,253,253,253,253,253,253,253,253,253,253,253,253,253,253,253,254,254,254,254,254,254,255,255,255,255,255,256,256,256,256,256,256,257,257,257,257,257,257,257,257,257,257,258,258,258,258,258,258,258,258,258,259,259,259,259,259,259,260,260,260,260,260,260,260,261,261,261,261,261,261,261,261,261,261,261,261,262,262,262,262,262,262,262,262,263,263,263,263,263,263,263,264,264,264,264,264,264,264,264,264,264,264,264,264,264,264,264,265,265,265,265,265,265,265,265,265,265,265,264,264,264,264,264,264,264,264,264,264,264,264,264,264,264,264,264,263,263,263,263,263,263,262,262,262,262,262,261,261,261,261,260,260,260,260,260,259,259,259,259,259,259,259,259,259,259,259,259,259,259,259,260,261,261,262,264,264,265,267,267,268,269,269,269,269,269,269,270,270,270,270,270,270,270,270,270,270,270,269,269,269,269,269,269,269,269,268,268,268,268,268,268,267,267,267,267,266,266,266,266,266,266,266,266,265,265,265,0,0,0,264,264,263,263,263,263,263,263,263,262,262,262,262,262,262,262,262,262,262,262,262,262,261,261,261,261,261,261,261,261,261,261,260,260,260,260,260,259,259,259,259,259,258,258,258,257,257,257,257,257,256,256,257,257,258,257,257,257,257,258,258,258,258,262,260,260,261,261,261,261,261,261,261,262,0,0
234,0,0,0,0,0,235,235,235,235,236,236,236,236,236,236,236,236,236,236,236,236,236,236,235,235,235,235,235,235,235,236,236,236,236,236,236,236,236,236,236,236,236,236,236,237,237,237,237,237,237,237,237,238,238,238,238,238,239,239,239,239,240,240,240,241,241,241,242,242,242,242,242,243,243,243,244,244,244,245,245,245,246,246,246,247,247,247,248,248,248,248,248,249,249,249,250,250,250,250,250,250,251,251,251,251,251,251,251,251,251,251,251,252,252,252,252,252,252,252,251,251,251,251,251,251,251,251,251,251,251,251,251,250,250,250,250,250,250,250,250,249,249,249,249,249,249,249,249,249,249,249,249,249,249,249,249,249,249,249,250,250,250,250,250,250,250,250,250,250,250,250,250,250,250,250,250,250,250,250,250,249,249,249,249,249,249,249,249,249,249,249,249,249,249,249,249,249,249,249,249,249,249,249,249,250,250,250,250,250,250,250,250,250,251,251,251,252,252,252,253,253,254,254,254,255,255,255,256,256,256,256,256,256,256,255,255,255,255,255,255,255,255,255,255,255,255,255,254,254,254,254,254,253,253,253,253,253,252,251,251,251,251,251,250,250,249,249,249,250,250,249,249,249,249,249,249,249,249,249,249,249,249,249,249,250,250,250,250,250,250,250,250,250,250,250,251,251,251,251,251,251,251,251,251,251,251,251,251,251,251,251,251,251,251,252,252,252,252,252,252,252,252,252,253,253,253,253,253,253,253,253,253,253,253,253,253,253,253,253,253,253,253,253,253,253,253,253,253,253,254,254,254,254,254,254,255,255,255,255,255,256,256,256,256,256,256,257,257,257,257,257,257,257,257,257,257,258,258,258,258,258,258,258,258,258,259,259,259,259,259,259,260,260,260,260,260,260,260,261,261,261,261,261,261,261,261,261,261,261,261,262,262,262,262,262,262,262,262,263,263,263,263,263,263,263,264,264,264,264,264,264,264,264,264,264,264,264,264,264,264,264,265,265,265,265,265,265,265,265,265,265,265,264,264,264,264,264,264,264,264,264,264,264,264,264,264,264,264,264,263,263,263,263,263,263,262,262,262,262,262,261,261,261,261,260,260,260,260,260,259,259,259,259,259,259,259,259,259,259,259,259,259,259,259,260,261,261,262,264,264,265,267,267,268,269,269,269,269,269,269,270,270,270,270,270,270,270,270,270,270,270,269,269,269,269,269,269,269,269,268,268,268,268,268,268,267,267,267,267,267,267,267,267,267,267,266,266,266,266,0,0,0,0,264,264,264,264,264,263,263,263,263,263,262,262,262,262,262,262,262,262,262,262,262,262,262,261,261,261,261,261,261,261,261,261,260,260,260,260,260,259,259,259,259,259,258,258,258,258,258,257,257,257,257,257,257,257,258,258,258,0,0,0,263,260,260,262,262,262,263,263,263,263,263,263,0,0,0,0
234,0,0,0,0,0,235,235,235,235,236,236,236,236,236,236,236,236,236,236,236,236,236,236,235,235,235,235,235,235,235,236,236,236,236,236,236,236,236,236,236,236,236,236,237,237,237,237,237,237,237,237,237,238,238,238,238,238,239,239,239,239,240,240,240,241,241,241,242,242,242,242,242,243,243,243,244,244,244,245,245,245,246,246,246,247,247,247,248,248,248,248,248,249,249,249,250,250,250,250,250,250,251,251,251,251,251,251,251,251,251,251,251,251,251,251,251,251,251,251,251,251,251,251,251,251,251,250,250,250,250,250,250,250,250,250,250,250,250,250,250,249,249,249,249,249,249,249,249,249,249,249,249,249,249,249,249,249,250,250,250,250,250,250,250,250,250,250,250,250,250,250,250,250,250,250,250,250,250,250,250,249,249,249,249,249,249,249,249,249,249,249,249,249,249,249,249,249,249,249,249,249,249,249,249,250,250,250,250,250,250,250,250,250,251,251,251,252,252,252,253,253,254,254,254,255,255,255,256,256,256,256,256,256,256,255,255,255,255,255,255,255,255,255,255,255,255,255,254,254,254,254,254,253,253,253,253,253,252,251,251,251,251,251,250,250,249,249,249,249,249,249,249,249,249,249,249,249,249,249,249,249,249,249,249,249,249,249,250,250,250,250,250,250,250,250,250,251,251,251,251,251,251,251,251,251,251,251,251,251,251,251,251,251,251,252,252,252,252,252,252,252,252,252,252,252,252,252,253,253,253,253,253,253,253,253,253,253,253,253,253,253,253,253,253,253,253,253,253,253,253,253,253,254,254,254,254,254,254,255,255,255,255,255,256,256,256,256,256,256,256,256,256,256,257,257,257,257,258,258,258,258,258,258,258,258,258,258,259,259,259,259,259,259,260,260,260,260,260,261,261,261,261,261,261,261,261,261,261,261,261,262,262,262,262,262,262,262,262,263,263,263,263,263,263,263,264,264,264,264,264,264,264,264,264,264,264,264,264,264,265,265,265,265,265,265,265,265,265,265,265,265,265,265,265,265,265,265,264,264,264,264,264,264,264,264,264,264,264,264,263,263,263,263,263,263,262,262,262,262,262,261,261,261,261,261,260,260,260,260,260,260,260,259,259,259,259,259,259,259,259,259,259,260,260,260,262,262,0,0,266,266,268,269,269,269,269,270,270,270,270,270,270,270,270,270,270,270,270,270,270,270,270,270,270,269,269,269,269,269,269,268,268,268,268,268,268,268,268,268,267,267,267,267,267,267,267,267,267,267,0,0,0,0,265,265,264,264,264,264,264,263,263,263,263,263,263,263,263,263,263,262,262,262,262,262,262,262,262,262,262,261,261,261,261,261,260,260,260,260,260,259,259,259,259,259,258,258,258,258,258,257,257,257,257,257,258,258,259,260,260,0,0,0,263,263,263,264,264,264,264,264,264,264,263,263,0,0,0,0
234,0,0,0,0,0,235,235,235,235,236,236,236,236,236,236,236,236,236,236,236,236,236,236,236,236,236,236,236,236,236,236,236,236,236,236,236,236,236,236,236,236,237,237,237,237,237,237,237,237,237,238,238,238,238,238,238,238,239,239,239,239,240,240,240,241,241,241,242,242,242,242,242,243,243,243,244,244,244,245,245,245,246,246,246,247,247,247,0,248,248,248,248,249,249,249,250,250,250,250,250,250,251,251,251,251,251,251,251,251,251,251,251,251,251,251,251,251,251,251,251,251,251,251,251,251,251,250,250,250,250,250,250,250,250,250,250,250,250,250,250,249,249,249,249,249,249,249,249,249,249,249,249,249,249,249,249,249,250,250,250,250,250,250,250,250,250,250,250,250,250,250,250,250,250,250,250,250,250,250,250,249,249,249,249,249,249,249,249,249,249,249,249,249,249,249,249,249,249,249,249,249,249,249,249,249,249,249,249,250,250,250,250,250,250,250,251,251,251,251,252,252,253,253,253,254,254,254,255,255,255,255,255,255,255,255,255,255,254,254,254,254,254,254,254,253,253,253,253,253,253,252,252,252,252,251,251,251,251,251,250,250,250,249,249,249,249,249,249,249,249,248,248,248,249,249,249,249,249,249,249,249,249,249,249,249,249,249,249,249,250,250,250,250,250,250,250,251,251,251,251,251,251,251,251,251,251,251,251,251,251,251,251,251,251,251,251,252,252,252,252,252,252,252,252,252,252,252,252,252,252,252,253,253,253,253,253,253,253,253,253,253,253,253,253,253,253,253,253,253,253,253,253,253,253,253,254,254,254,255,255,255,255,255,256,256,256,256,256,256,256,256,256,256,257,257,257,257,258,258,258,258,258,258,258,258,258,258,259,259,259,259,259,259,260,260,260,260,260,261,261,261,261,261,261,261,261,261,261,261,261,262,262,262,262,262,262,262,262,263,263,263,263,263,263,263,264,264,264,264,264,264,264,264,264,264,264,264,264,264,265,265,265,265,265,265,265,265,265,265,265,265,265,265,265,265,265,265,265,265,265,265,264,264,264,264,264,264,264,264,263,263,263,263,263,263,262,262,262,262,262,261,261,261,261,261,260,260,260,260,260,260,260,260,259,259,259,259,259,259,259,259,259,260,260,260,262,262,0,267,266,266,268,269,269,269,269,270,270,270,270,270,270,270,270,270,270,270,270,270,270,270,270,270,270,269,269,269,269,269,269,268,268,268,268,268,268,268,268,268,267,267,267,267,267,267,267,267,267,267,0,0,0,0,265,265,264,264,264,264,264,263,263,263,263,263,263,263,263,263,263,262,262,262,262,262,262,262,262,262,262,261,261,261,261,261,260,260,260,260,260,259,259,259,259,259,258,258,258,258,258,257,257,257,257,257,258,258,259,260,260,264,264,265,263,263,263,264,264,264,264,264,264,264,264,264,0,0,0,0
234,235,235,235,235,235,235,235,235,235,236,236,236,236,236,236,236,236,236,236,236,236,236,236,236,236,236,236,236,236,236,236,236,236,236,236,236,236,236,236,236,236,237,237,237,237,237,237,237,237,237,238,238,238,238,238,238,238,239,239,239,239,240,240,240,241,241,241,242,242,242,242,242,243,243,243,244,244,244,245,245,245,246,246,246,246,246,247,247,247,248,248,248,249,249,249,249,250,250,250,250,250,251,251,251,251,251,251,251,251,251,251,251,251,251,251,251,251,251,251,251,251,251,250,250,250,250,250,250,250,250,250,250,250,250,250,250,250,250,250,250,249,249,249,249,249,249,249,249,249,249,249,249,250,250,250,250,250,250,250,250,250,250,250,250,250,250,250,250,250,250,250,250,250,250,250,250,250,250,250,249,249,249,249,249,249,249,249,249,249,249,249,249,249,249,249,249,249,249,249,249,249,249,249,249,249,249,249,249,249,249,249,249,249,250,250,250,250,250,251,251,251,252,253,253,254,254,254,255,255,255,255,255,255,255,255,255,255,254,254,254,254,254,254,254,253,253,253,253,253,253,252,252,252,252,251,251,251,251,251,250,250,250,249,249,249,249,249,249,249,249,248,248,248,249,249,249,249,249,249,249,249,249,249,249,249,249,249,249,249,250,250,250,250,250,250,250,251,251,251,251,251,251,251,251,251,251,251,251,251,251,251,251,251,251,251,251,252,252,252,252,252,252,252,252,252,252,252,252,252,252,252,253,253,253,253,253,253,253,253,253,253,253,253,253,253,253,253,253,253,253,253,253,253,253,253,254,254,254,254,254,254,254,255,255,255,255,255,255,256,256,256,256,256,257,257,257,257,257,257,257,258,258,258,258,258,258,258,259,259,259,259,259,259,260,260,260,260,260,260,261,261,261,261,261,261,261,261,261,261,261,261,261,262,262,262,262,262,262,263,263,263,263,263,263,263,264,264,264,264,264,264,264,264,264,264,264,264,264,264,265,265,265,265,265,265,265,265,265,265,265,265,265,265,265,265,265,265,265,265,265,264,264,264,264,264,264,264,264,264,263,263,263,263,263,262,262,262,262,262,262,261,261,261,261,261,260,260,260,260,260,260,260,260,260,260,260,260,260,260,260,260,260,260,260,261,262,262,0,267,267,267,268,269,269,270,270,270,270,270,270,270,270,270,271,271,271,271,271,271,270,270,270,270,270,270,269,269,269,269,269,269,269,268,268,268,268,268,268,268,268,268,268,268,268,268,268,268,267,267,268,268,267,267,266,266,265,265,265,264,264,264,264,264,263,263,263,263,263,263,263,263,263,263,263,263,262,262,262,262,262,262,261,261,261,261,260,260,260,260,260,259,259,259,259,259,0,258,258,258,258,258,258,258,258,258,259,259,262,262,0,264,264,265,265,0,0,266,266,266,266,266,266,266,266,266,0,0,0,0
235,235,235,235,235,235,235,235,235,236,236,236,236,236,236,236,236,236,236,236,236,236,236,236,236,236,236,236,236,236,236,236,236,236,236,236,236,236,236,236,237,237,237,237,237,237,237,237,237,237,238,238,238,238,238,238,238,238,239,239,239,239,240,240,240,241,241,241,242,242,242,242,242,243,243,243,244,244,244,245,245,245,245,245,246,246,246,247,247,247,248,248,248,249,249,249,249,250,250,250,250,250,251,251,251,251,251,251,251,251,251,251,251,251,251,251,251,251,251,251,251,251,251,250,250,250,250,250,250,250,250,250,250,250,250,250,250,250,250,250,250,250,250,250,250,250,250,250,250,250,250,250,250,250,250,250,250,250,250,250,250,250,250,250,251,251,251,251,251,251,251,250,250,250,250,250,250,250,250,250,249,249,249,249,249,249,249,249,249,249,249,249,249,249,249,249,249,249,249,249,249,249,249,249,249,249,249,249,249,249,249,249,249,249,250,250,250,250,250,251,251,251,252,252,252,253,254,254,254,254,254,254,254,254,254,254,254,254,254,254,253,253,253,253,253,252,252,252,252,253,251,251,251,250,250,250,250,250,249,249,249,249,249,249,249,249,249,249,248,248,248,248,248,248,248,248,248,248,248,248,248,248,248,248,248,249,249,249,249,249,250,250,250,250,250,250,250,251,251,251,251,251,251,251,251,251,251,251,251,251,251,251,251,251,251,251,251,252,252,252,252,252,252,252,252,252,252,252,252,252,252,252,252,252,252,252,252,252,252,252,252,252,252,252,252,252,252,252,252,252,252,252,252,253,253,253,253,253,253,253,254,254,254,254,254,254,254,255,255,255,255,255,256,256,256,256,256,257,257,257,257,257,257,258,258,258,258,258,258,259,259,259,259,259,259,259,260,260,260,260,260,260,260,260,261,261,261,261,261,261,261,261,261,262,262,262,262,262,262,263,263,263,263,263,263,263,264,264,264,264,264,264,264,264,264,264,264,264,265,265,265,265,265,265,265,265,265,265,265,265,265,265,265,265,265,265,265,265,265,265,265,264,264,264,264,264,264,264,264,264,263,263,263,263,263,262,262,262,262,262,262,261,261,261,261,261,260,260,260,260,260,260,260,260,260,260,260,260,260,260,260,260,260,260,260,261,0,0,0,268,268,268,269,270,270,270,270,270,271,271,271,271,271,271,271,271,271,271,271,271,271,271,270,270,270,270,270,270,269,269,269,269,269,269,269,269,268,268,268,268,268,268,268,268,268,268,268,268,268,268,268,268,267,267,267,267,266,266,266,265,265,265,265,264,264,264,264,264,264,263,263,263,263,263,263,263,262,262,262,262,262,262,261,261,261,261,260,260,260,260,260,259,259,259,259,259,0,258,258,258,258,258,258,258,258,258,259,259,262,262,0,264,264,265,265,267,267,266,266,266,266,266,266,266,266,266,267,267,0,0
235,235,235,235,235,235,235,235,235,236,236,236,236,236,236,236,236,236,237,237,236,236,236,236,236,236,236,236,236,236,236,236,236,236,236,236,236,237,237,237,237,237,237,237,237,237,237,237,238,238,238,238,238,238,238,238,238,238,239,239,239,239,240,240,240,241,241,241,242,242,242,242,242,243,243,243,244,244,244,245,245,245,245,245,246,246,246,247,247,247,248,248,248,248,249,249,249,250,250,250,250,250,250,250,251,251,251,251,251,251,251,251,251,251,251,251,251,251,251,250,250,250,250,250,250,250,250,250,250,250,250,250,250,250,250,250,250,250,250,250,250,250,250,250,250,250,250,250,250,250,250,250,250,250,250,250,250,250,250,250,250,250,250,250,251,251,251,251,251,251,251,250,250,250,250,250,250,250,250,250,249,249,249,249,249,249,249,249,249,249,249,249,249,249,248,248,248,248,249,249,249,249,249,249,249,249,249,249,249,249,249,249,249,249,249,249,249,250,250,250,251,251,251,251,252,252,252,253,253,253,253,253,253,253,253,253,253,253,253,253,253,253,252,252,252,251,251,251,252,0,250,250,250,250,250,250,249,249,248,248,248,248,248,248,248,248,248,248,248,248,248,248,248,248,248,248,248,248,248,248,248,248,248,248,248,248,249,249,249,249,249,250,250,250,250,250,251,251,251,251,251,251,251,251,251,251,251,251,251,251,251,251,251,251,251,251,251,252,252,252,252,252,252,252,252,252,252,252,252,252,252,252,252,252,252,252,252,252,252,252,252,252,252,252,252,252,252,252,252,252,252,252,252,253,253,253,253,253,253,253,254,254,254,254,254,254,254,255,255,255,255,255,256,256,256,256,256,257,257,257,257,257,257,258,258,258,258,258,258,259,259,259,259,259,259,259,260,260,260,260,260,260,260,260,261,261,261,261,261,261,261,261,261,262,262,262,262,262,262,263,263,263,263,263,263,263,264,264,264,264,264,264,264,264,264,264,264,265,265,265,265,265,265,265,265,265,265,265,265,265,265,265,265,265,265,265,265,265,265,265,265,264,264,264,264,264,264,264,264,264,263,263,263,263,263,262,262,262,262,262,262,261,261,261,261,261,260,260,260,260,260,260,260,260,260,260,260,260,260,260,260,260,260,260,260,261,263,263,0,268,268,268,269,270,270,270,270,270,271,271,271,271,271,271,271,271,271,271,271,271,271,271,270,270,270,270,270,270,269,269,269,269,269,269,269,269,268,268,268,268,268,268,268,268,268,268,268,268,268,268,268,268,267,267,267,267,266,266,266,265,265,265,265,264,264,264,264,264,264,263,263,263,263,263,263,263,263,263,263,262,262,262,261,261,261,261,260,260,260,260,260,259,259,259,259,259,259,259,259,258,258,258,258,259,260,260,0,0,0,267,267,266,266,267,267,267,267,267,268,0,267,267,267,267,267,267,267,267,268,269
234,234,234,234,235,235,235,235,235,236,236,236,236,236,236,236,236,236,237,237,236,236,236,236,236,236,236,236,236,236,236,236,236,236,236,236,236,237,237,237,237,237,237,237,237,237,237,237,238,238,238,238,238,238,238,238,238,238,239,239,239,239,240,240,240,240,240,241,241,241,242,242,242,243,243,243,244,244,244,244,244,245,245,245,246,246,246,247,247,247,247,248,248,248,249,249,249,249,249,250,250,250,250,250,251,251,251,251,251,251,251,251,251,251,251,250,250,250,250,250,250,250,250,250,250,250,250,249,249,249,249,249,249,250,250,250,250,250,250,250,250,250,250,250,250,250,250,250,250,250,250,250,250,250,250,251,251,251,251,251,251,251,251,251,251,251,251,251,251,251,251,251,251,250,250,250,250,250,250,250,249,249,249,249,249,249,249,249,249,249,249,249,249,249,248,248,248,248,249,249,249,249,249,249,249,249,249,249,249,249,249,249,249,249,249,249,249,250,250,250,251,251,251,251,252,252,252,253,253,253,253,253,253,253,253,253,253,253,253,253,253,253,252,252,252,251,251,251,0,0,250,250,250,250,0,0,249,249,248,248,248,248,248,248,248,248,248,248,248,248,248,248,248,248,248,248,248,248,248,248,248,248,248,248,248,248,249,249,249,249,249,250,250,250,250,250,251,251,251,251,251,251,251,251,251,251,251,251,251,251,251,251,251,251,251,251,251,252,252,252,252,252,252,252,252,252,252,252,252,252,252,252,252,252,252,252,252,252,252,252,252,252,252,252,252,252,252,252,252,252,252,252,252,252,252,252,252,252,253,253,253,253,253,253,253,253,254,254,254,254,254,255,255,255,256,256,256,256,257,257,257,257,257,258,258,258,258,258,258,259,259,259,259,259,259,259,259,260,260,260,260,260,260,260,260,261,261,261,261,261,261,261,261,262,262,262,262,262,262,263,263,263,263,263,263,263,264,264,264,264,264,264,264,264,264,264,264,265,265,265,265,265,265,265,265,265,265,265,265,265,265,265,265,265,265,265,265,265,265,265,265,265,265,265,265,264,264,264,264,264,263,263,263,263,263,262,262,262,262,262,261,261,261,261,261,261,261,261,260,260,260,260,260,260,260,260,260,260,260,260,260,260,260,261,261,261,263,263,267,267,268,268,269,270,270,270,270,270,271,271,271,271,271,271,271,271,271,271,271,271,271,270,270,270,270,270,270,270,269,269,269,269,269,269,269,269,269,269,269,269,269,269,269,269,269,269,269,269,269,269,269,268,268,268,268,0,267,266,266,266,266,265,265,265,265,265,264,264,264,264,264,264,264,264,263,263,263,263,263,263,262,262,262,262,261,261,261,260,260,260,260,259,259,259,259,259,259,259,259,259,259,259,259,260,0,0,0,0,0,267,267,267,267,268,268,268,268,268,268,0,268,268,268,268,268,268,268,268,268,269
234,234,234,234,234,235,235,235,235,236,236,236,236,236,236,237,237,237,237,237,237,237,236,236,236,236,236,236,236,236,236,236,236,236,236,236,237,237,237,237,237,237,237,237,237,238,238,238,238,238,238,238,238,238,238,238,239,239,239,239,239,239,240,240,240,240,240,241,241,241,242,242,242,243,243,243,244,244,244,244,244,245,245,245,246,246,246,247,247,247,247,248,248,248,249,249,249,249,249,250,250,250,250,250,251,251,251,251,251,251,251,251,251,251,251,250,250,250,250,250,250,250,250,250,250,250,250,249,249,249,249,249,249,250,250,250,250,250,250,250,250,250,250,250,250,250,250,251,251,251,251,251,251,251,251,251,251,251,251,251,251,251,251,251,251,251,251,251,251,251,251,251,251,250,250,250,250,250,250,250,249,249,249,249,249,249,249,249,249,248,248,248,248,248,248,248,248,248,248,248,248,248,248,248,248,248,248,248,248,248,248,248,248,248,249,249,249,249,249,250,250,250,251,251,251,252,252,252,252,252,252,252,252,253,252,252,252,252,252,252,252,252,251,251,251,250,250,250,249,249,249,249,248,248,248,248,248,248,248,248,248,248,248,248,248,248,248,248,248,248,248,248,248,248,248,248,248,248,248,248,248,248,248,248,248,248,248,248,249,249,249,250,250,250,250,250,250,251,251,251,251,251,251,251,251,251,251,251,251,251,251,251,251,251,251,251,251,251,252,252,252,252,252,252,252,252,252,252,252,252,252,252,252,252,252,252,252,252,252,252,252,252,252,252,252,252,252,252,252,252,252,252,252,252,252,252,252,252,252,252,252,252,252,252,253,253,253,253,253,254,254,254,254,254,255,255,255,256,256,256,256,256,257,257,257,257,258,258,258,258,258,259,259,259,259,259,259,260,260,260,260,260,260,260,260,261,261,261,261,261,261,261,261,262,262,262,262,262,262,263,263,263,263,263,263,263,264,264,264,264,264,264,264,264,264,264,264,265,265,265,265,265,265,265,265,265,265,265,265,265,265,265,265,265,265,265,265,265,265,265,265,265,265,265,265,264,264,264,264,264,264,263,263,263,263,262,262,262,262,262,261,261,261,261,261,261,261,261,260,260,260,260,260,260,260,260,260,260,260,260,260,260,260,261,261,261,263,263,267,267,269,269,270,271,271,271,271,271,271,271,271,271,271,271,271,271,271,271,271,271,271,270,270,270,270,270,270,270,269,269,269,269,269,269,269,269,269,269,269,269,269,269,269,269,269,269,269,269,269,269,269,268,268,268,268,268,267,266,266,266,266,265,265,265,265,265,264,264,264,264,264,264,264,264,263,263,263,263,263,263,262,262,262,262,261,261,261,260,260,260,260,259,259,259,259,259,259,259,259,259,259,259,259,260,0,0,0,0,0,267,267,267,267,268,268,268,268,268,268,269,268,268,268,268,268,268,268,268,268,269
234,234,234,234,234,235,235,235,235,236,236,236,236,237,237,237,237,237,237,237,237,237,237,237,237,237,237,237,237,237,237,237,237,236,236,236,237,237,237,237,237,237,237,237,237,238,238,238,238,238,238,238,238,238,238,238,239,239,239,239,239,239,240,240,240,240,240,241,241,241,242,242,242,243,243,243,244,244,244,244,244,245,245,245,246,246,246,247,247,247,247,248,248,248,249,249,249,249,249,250,250,250,250,250,250,251,251,251,251,251,251,251,251,251,250,250,250,250,250,250,250,250,249,249,249,249,249,249,249,249,249,249,249,249,250,250,250,250,250,250,250,250,250,250,250,250,250,251,251,251,251,251,251,251,251,251,251,251,251,251,251,251,251,251,251,251,251,251,251,251,251,251,251,251,251,250,250,250,250,250,250,249,249,249,249,249,249,249,249,248,248,248,248,248,248,248,248,248,248,248,248,248,248,248,248,248,248,248,248,248,248,248,248,248,248,248,248,248,249,249,249,250,250,250,251,251,251,251,252,252,252,252,252,252,252,252,252,252,252,251,251,251,250,250,250,249,249,249,249,248,247,247,247,247,247,247,247,247,247,247,247,247,247,248,248,248,248,248,248,248,248,248,248,248,248,248,248,248,248,248,248,248,248,248,248,248,248,248,249,249,249,250,250,250,250,250,250,251,251,251,251,251,251,251,251,251,251,251,251,251,251,251,251,251,251,251,251,251,252,252,252,252,252,252,252,252,252,252,252,252,252,252,252,252,252,252,252,252,252,252,252,252,252,252,252,252,252,252,252,252,252,252,252,252,252,252,252,252,252,252,252,252,252,252,253,253,253,253,253,254,254,254,254,254,255,255,255,256,256,256,256,256,257,257,257,257,258,258,258,258,258,259,259,259,259,259,259,260,260,260,260,260,260,260,260,260,260,261,261,261,261,261,261,262,262,262,262,262,262,263,263,263,263,263,263,263,264,264,264,264,264,264,264,264,264,264,264,265,265,265,265,265,265,265,265,265,265,265,265,265,265,265,265,265,265,265,265,265,265,265,265,265,265,265,265,264,264,264,264,264,264,263,263,263,263,262,262,262,262,262,261,261,261,261,261,261,260,260,260,260,260,260,260,260,260,260,260,260,260,260,260,260,260,261,261,261,263,263,266,267,269,269,270,271,271,271,271,271,271,271,271,271,271,271,271,271,271,271,271,271,270,270,270,270,270,270,270,270,270,270,269,269,269,269,269,269,269,269,269,269,269,269,269,269,269,269,269,269,269,269,269,269,268,268,268,268,267,267,267,266,266,266,266,266,265,265,265,265,265,264,264,264,264,264,264,264,264,263,263,263,262,262,262,262,261,261,261,260,260,260,260,260,259,259,259,259,259,259,259,259,259,260,260,261,0,0,0,267,267,267,268,268,268,269,269,269,269,269,269,269,269,269,269,269,269,268,268,269,269,270
234,234,234,234,234,235,235,235,235,236,236,236,236,237,237,237,237,237,237,237,237,237,237,237,237,237,237,237,237,237,237,237,237,237,237,237,237,237,237,237,237,237,237,238,238,238,238,238,238,238,238,238,238,238,239,239,239,239,239,239,239,239,240,240,240,240,240,241,241,241,242,242,242,243,243,243,244,244,244,244,244,245,245,245,246,246,246,247,247,247,247,248,248,248,248,248,249,249,249,249,249,250,250,250,250,251,251,251,251,251,251,250,250,250,250,250,250,250,250,249,249,249,249,249,249,249,249,249,249,249,249,249,249,249,250,250,250,250,250,250,250,250,250,250,251,251,251,251,251,251,251,251,251,252,252,252,252,252,252,252,252,252,252,252,252,252,252,252,252,252,251,251,251,251,251,251,250,250,250,250,250,249,249,249,249,249,249,249,249,248,248,248,248,248,248,248,248,248,248,248,248,248,248,248,248,248,248,248,248,248,248,248,248,248,248,248,248,248,249,249,249,250,250,250,251,251,251,251,252,252,252,252,252,252,252,252,252,252,252,251,251,251,250,250,250,249,249,249,249,248,247,247,247,247,247,247,247,247,247,247,247,247,247,247,247,247,248,248,248,248,248,248,248,248,248,248,247,247,247,247,247,247,248,248,248,248,248,248,249,249,249,249,249,250,250,250,250,251,251,251,251,251,251,251,251,251,251,251,251,251,251,251,251,251,251,251,251,251,251,251,251,251,251,251,251,251,251,251,251,251,251,251,251,251,251,251,251,251,251,251,251,251,251,251,251,251,251,251,251,251,251,251,251,252,252,252,252,252,252,252,252,252,252,252,252,252,253,253,253,253,253,254,254,254,254,255,255,255,255,256,256,256,256,257,257,257,257,257,258,258,258,258,258,258,259,259,259,259,259,259,260,260,260,260,260,260,260,260,261,261,261,261,261,261,261,262,262,262,262,262,262,263,263,263,263,263,263,263,263,264,264,264,264,264,264,264,264,264,265,265,265,265,265,265,265,265,265,265,265,266,266,266,266,266,266,266,266,266,266,266,266,265,265,265,265,265,265,265,264,264,264,263,263,263,263,263,262,262,262,262,261,261,261,261,261,261,260,260,260,260,260,260,260,260,260,260,260,260,260,260,260,260,261,261,261,262,264,266,266,268,269,269,270,271,271,271,271,271,271,271,271,271,271,271,271,271,271,271,271,271,270,270,270,270,270,270,270,270,270,270,269,269,269,269,269,269,269,269,269,269,269,269,269,269,269,269,269,269,269,269,269,269,269,269,268,268,268,268,268,267,267,267,266,266,266,266,265,265,265,265,265,265,264,264,264,264,264,264,264,263,263,263,262,262,261,261,261,260,260,260,260,260,259,259,259,259,259,259,259,259,260,261,261,262,0,0,0,267,267,267,268,269,269,269,269,269,269,269,269,269,269,269,269,269,269,268,268,269,269,270
234,234,234,234,235,235,235,235,235,236,236,236,0,0,237,237,237,237,237,237,237,237,237,237,237,237,237,237,237,237,237,237,237,237,237,237,237,237,237,237,237,237,237,238,238,238,238,238,238,238,238,238,238,239,239,239,239,0,0,240,240,240,240,240,240,241,241,241,241,241,242,242,242,243,243,243,244,244,244,244,244,245,245,245,246,246,246,247,247,247,247,248,248,248,248,248,249,249,249,249,249,250,250,250,250,251,251,251,251,251,251,250,250,250,250,250,250,250,250,249,249,249,249,249,249,249,249,249,249,249,249,249,249,249,250,250,250,250,250,250,250,250,250,250,251,251,251,251,251,251,251,251,251,252,252,252,252,252,252,252,252,252,252,252,252,252,252,252,252,252,251,251,251,251,251,251,250,250,250,250,250,249,249,249,249,249,249,249,249,248,248,248,248,248,248,248,248,248,248,248,248,248,248,248,248,248,248,248,248,248,248,248,248,248,248,248,248,248,248,249,249,249,250,250,250,250,250,251,251,251,251,251,251,251,251,251,251,251,251,251,250,250,249,249,249,248,248,247,247,247,247,247,246,246,246,246,246,246,247,247,247,247,247,247,247,247,247,247,247,247,247,247,247,247,247,247,247,247,247,247,247,247,247,248,248,248,248,248,248,248,249,249,249,250,250,250,250,250,250,251,251,251,251,251,251,251,251,251,251,251,251,251,251,251,251,251,251,251,251,251,251,251,251,251,251,251,251,251,251,251,251,251,251,251,251,251,251,251,251,251,251,251,251,251,251,251,251,251,251,251,251,251,251,252,252,252,252,252,252,252,252,252,252,252,252,252,253,253,253,253,253,254,254,254,254,255,255,255,255,256,256,256,256,257,257,257,257,257,258,258,258,258,258,258,259,259,259,259,259,259,260,260,260,260,260,260,260,260,261,261,261,261,261,261,261,262,262,262,262,262,262,263,263,263,263,263,263,263,263,264,264,264,264,264,264,264,264,264,265,265,265,265,265,265,265,265,265,265,265,266,266,266,266,266,266,266,266,266,266,266,266,266,266,266,266,265,265,265,265,264,264,264,264,263,263,263,262,262,262,262,261,261,261,261,261,261,260,260,260,260,260,260,260,260,260,260,260,260,260,260,260,260,261,261,261,262,264,266,266,268,269,269,270,271,271,271,271,271,271,271,271,271,271,271,271,271,271,271,270,270,270,270,270,270,270,270,270,270,270,270,269,269,269,269,269,269,269,269,269,269,269,269,269,269,269,269,269,269,269,269,269,269,269,269,268,268,268,268,268,267,267,267,266,266,266,266,265,265,265,265,265,265,264,264,264,264,264,264,264,263,263,263,262,262,261,261,261,260,260,260,260,260,259,259,259,259,259,259,259,259,260,261,261,262,265,265,265,266,267,267,268,269,269,269,269,269,269,269,269,269,269,269,269,269,269,269,269,269,269,270
234,234,234,234,235,235,235,235,235,236,236,236,237,237,237,237,237,237,237,237,237,237,237,237,237,237,237,237,237,237,237,237,237,237,237,237,237,237,237,237,237,237,237,238,238,238,238,238,238,238,238,238,238,239,239,239,239,239,239,239,239,240,240,240,240,241,241,241,241,241,242,242,242,243,243,243,244,244,244,244,244,245,245,245,246,246,246,247,247,247,247,248,248,248,248,248,249,249,249,249,249,250,250,250,250,250,250,250,250,250,250,250,250,250,250,250,250,249,249,249,249,249,249,249,249,249,249,249,249,249,249,249,249,249,250,250,250,250,250,250,250,250,251,251,251,251,251,252,252,252,252,252,252,252,252,252,252,252,252,252,252,252,252,252,252,252,252,252,252,252,252,252,252,251,251,251,251,251,250,250,250,249,249,249,249,249,249,249,249,248,248,248,248,248,248,248,248,248,248,248,248,248,248,248,248,248,248,248,248,248,248,248,248,248,248,248,248,248,248,249,249,249,250,250,250,250,250,251,251,251,251,251,251,251,251,251,251,251,251,251,250,250,249,249,249,248,248,247,247,247,247,247,246,246,246,246,246,246,247,247,247,247,247,247,247,247,247,247,247,247,247,247,247,247,247,247,247,247,247,247,247,247,247,248,248,248,248,248,248,248,249,249,249,250,250,250,250,250,250,251,251,251,251,251,251,251,251,251,251,251,251,251,251,251,251,251,251,251,251,251,251,251,251,251,251,251,251,251,251,251,251,251,251,251,251,251,251,251,251,251,251,251,251,251,251,251,251,251,251,251,251,251,251,251,251,251,251,251,251,251,251,252,252,252,252,252,252,252,252,253,253,253,253,253,254,254,254,255,255,255,256,256,256,256,256,257,257,257,257,258,258,258,258,258,258,258,259,259,259,259,259,259,260,260,260,260,260,260,261,261,261,261,261,261,261,261,262,262,262,262,262,263,263,263,263,263,263,263,263,263,263,263,264,264,264,264,264,264,265,265,265,265,265,265,265,265,265,265,265,266,266,266,266,266,266,266,266,266,266,266,266,266,266,266,266,265,265,265,265,264,264,264,264,263,263,263,262,262,262,262,261,261,261,261,261,261,261,261,260,260,260,260,260,260,260,260,260,260,260,260,261,0,0,0,0,264,264,0,0,0,0,270,270,271,271,271,271,271,271,271,271,271,271,271,271,270,270,270,270,270,270,270,270,270,270,270,270,270,270,270,270,270,270,269,269,269,269,269,269,269,269,269,269,269,269,269,269,270,270,270,270,269,269,269,269,269,268,268,268,268,267,267,267,267,266,266,266,266,266,266,265,265,265,265,265,264,264,264,264,264,263,263,262,262,262,0,0,260,260,260,260,260,260,260,259,259,259,259,260,261,261,262,263,263,265,265,265,266,268,268,269,269,269,269,269,269,269,269,269,269,269,269,269,269,269,269,269,270,270,0
234,234,234,234,235,235,235,235,235,0,0,0,237,237,237,237,237,237,238,238,237,237,237,237,237,237,237,237,237,237,237,237,237,237,237,237,237,237,237,237,237,237,237,238,238,238,238,238,238,238,239,239,239,239,239,239,239,239,239,239,239,240,240,240,240,241,241,241,241,241,242,242,242,243,243,243,244,244,244,244,244,245,245,245,246,246,246,247,247,247,247,248,248,248,249,249,249,249,249,249,249,250,250,250,250,250,250,250,250,250,250,250,250,250,250,250,250,249,249,249,249,249,249,249,249,249,249,249,249,249,249,249,249,250,250,250,250,250,250,251,251,251,251,252,252,252,252,252,252,252,253,253,253,253,253,253,253,253,253,253,253,253,253,253,253,253,253,253,252,252,252,252,252,252,251,251,251,251,250,250,250,250,250,249,249,249,249,249,249,249,249,249,249,249,248,248,248,248,248,248,248,248,248,248,248,248,248,248,248,248,248,248,248,248,248,248,248,248,248,249,249,249,250,250,250,250,250,250,251,251,251,251,251,251,250,250,250,250,250,250,249,249,248,248,248,248,247,247,247,246,246,246,246,246,246,246,246,246,246,246,246,246,246,247,247,247,247,247,247,247,247,247,247,247,247,247,247,247,247,247,247,247,247,247,247,248,248,248,248,248,249,249,249,249,250,250,250,250,250,250,250,250,250,250,250,250,250,250,250,250,250,250,250,250,250,251,251,251,251,251,251,251,251,251,251,251,251,251,251,251,251,251,251,251,251,251,251,251,251,251,251,251,251,251,251,251,251,251,251,251,251,251,251,251,251,251,251,251,251,251,251,251,251,251,251,251,252,252,252,252,252,252,253,253,253,253,254,254,254,255,255,255,256,256,256,256,257,257,257,257,257,258,258,258,258,258,258,259,259,259,259,259,259,259,260,260,260,260,260,260,261,261,261,261,261,261,262,262,262,262,262,262,262,263,263,263,263,263,263,263,263,263,263,263,264,264,264,264,264,264,265,265,265,265,265,265,265,265,266,266,266,266,266,266,266,266,266,266,266,266,266,266,266,266,266,266,265,265,265,264,264,264,264,263,263,263,262,262,262,262,262,261,261,261,261,261,261,261,260,260,260,260,260,260,260,260,260,260,260,260,261,0,0,0,0,264,264,0,0,0,0,270,270,271,271,271,271,271,271,271,271,271,271,271,271,270,270,270,270,270,270,270,270,270,270,270,270,270,270,270,270,270,270,269,269,269,269,269,269,269,269,269,269,269,269,270,270,270,270,270,270,270,269,269,269,269,269,269,269,268,268,268,267,267,266,266,266,266,266,266,265,265,265,265,265,264,264,264,264,264,263,263,262,262,262,0,0,260,260,260,260,260,260,260,259,259,259,259,260,261,261,262,263,263,265,265,265,266,268,268,269,269,269,269,269,269,269,269,269,269,269,269,269,269,269,269,269,270,270,0
234,234,234,234,235,235,235,0,0,0,0,0,237,237,237,238,238,238,238,238,238,238,238,238,238,238,238,0,0,238,238,238,238,237,237,238,238,238,238,238,238,238,238,238,238,238,238,238,238,238,239,239,239,239,239,239,239,239,239,240,240,240,240,240,241,241,241,241,241,241,242,242,242,243,243,243,244,244,244,244,244,245,245,245,246,246,246,247,247,247,247,248,248,248,249,249,249,249,249,249,249,250,250,250,250,250,250,250,250,250,250,250,250,250,250,250,249,249,249,249,249,249,249,249,249,249,249,249,249,249,249,249,249,250,250,250,250,250,250,251,251,251,251,252,252,252,252,252,252,252,253,253,253,253,253,253,253,253,253,253,253,253,253,253,253,253,253,253,252,252,252,252,252,252,251,251,251,251,250,250,250,250,250,249,249,249,249,249,249,249,249,249,249,249,248,248,248,248,248,248,248,248,248,248,248,248,248,248,248,248,248,248,248,248,248,248,248,248,248,249,249,249,249,249,250,250,250,250,250,250,250,250,250,250,250,250,249,249,249,249,249,248,248,248,248,0,247,246,246,246,246,246,246,246,246,246,246,246,246,246,246,246,246,246,247,247,247,247,247,247,247,247,247,247,247,247,247,247,247,247,247,247,247,247,247,248,248,248,248,248,249,249,249,249,250,250,250,250,250,250,250,250,250,250,250,250,250,250,250,250,250,250,250,250,250,251,251,251,251,251,251,251,251,251,251,251,251,251,251,251,251,251,251,251,251,251,251,251,251,251,251,251,251,251,251,251,251,251,251,251,251,251,251,251,251,251,251,251,251,251,251,251,251,251,251,251,252,252,252,252,252,252,253,253,253,253,254,254,254,255,255,255,256,256,256,256,257,257,257,257,257,258,258,258,258,258,258,259,259,259,259,259,259,259,260,260,260,260,260,260,261,261,261,261,261,261,262,262,262,262,262,262,262,263,263,263,263,263,263,263,263,263,263,263,264,264,264,264,264,264,265,265,265,265,265,265,265,265,266,266,266,266,266,266,266,266,266,266,266,266,266,266,266,266,266,266,265,265,265,264,264,264,264,263,263,263,262,262,262,262,262,261,261,261,261,261,261,261,260,260,260,260,260,260,260,260,260,260,260,260,261,0,0,0,0,264,264,0,0,269,269,269,270,271,271,270,270,270,271,271,270,270,270,270,270,270,270,270,270,270,270,270,270,270,270,270,270,270,270,270,270,270,270,269,269,269,269,269,269,269,269,269,269,269,269,270,270,270,270,270,270,270,269,269,269,269,269,269,269,268,268,268,267,267,267,267,267,266,266,266,266,266,265,265,265,264,264,264,264,264,263,263,262,262,262,261,261,261,261,260,260,260,260,260,260,260,260,260,260,261,261,262,263,263,265,266,266,267,268,268,269,269,269,269,269,269,269,269,269,269,269,269,269,269,269,269,270,270,270,0
234,234,234,234,235,235,235,236,0,0,0,0,237,237,237,238,238,238,238,238,238,238,238,238,238,238,238,238,238,238,238,238,238,237,237,238,238,238,238,238,238,238,238,238,238,238,238,238,238,238,239,239,239,239,239,239,239,239,239,240,240,240,240,240,241,241,241,241,241,241,242,242,242,243,243,243,244,244,244,244,244,245,245,245,246,246,246,247,247,247,248,248,248,248,249,249,249,249,249,249,249,249,250,250,250,250,250,250,250,250,250,250,250,250,249,249,249,249,249,249,249,248,248,248,248,248,248,248,249,249,249,249,249,250,250,250,250,250,250,251,251,251,252,252,252,252,252,253,253,253,253,253,253,253,253,253,253,253,253,253,253,253,253,253,253,253,253,253,253,253,252,252,252,252,251,251,251,251,251,250,250,250,250,250,249,249,249,249,249,249,249,249,249,249,249,249,248,248,248,248,248,248,248,248,248,248,248,248,248,248,248,248,248,248,248,248,248,248,248,249,249,249,249,249,250,250,250,250,250,250,250,250,250,250,250,250,249,249,249,249,249,248,248,0,0,0,247,246,246,246,246,246,246,246,246,246,246,246,246,246,246,246,246,246,247,247,247,247,247,247,247,247,247,247,247,247,247,247,247,247,247,247,247,247,247,248,248,248,248,248,249,249,249,249,250,250,250,250,250,250,250,250,250,250,250,250,250,250,250,250,250,250,250,250,250,250,250,250,250,250,250,250,250,251,250,250,251,251,251,251,251,251,251,251,251,251,251,251,251,251,251,251,251,251,251,251,251,251,251,251,251,251,251,251,251,251,251,251,251,251,251,251,251,251,251,251,251,251,251,252,252,252,252,252,253,253,253,254,254,254,255,255,255,256,256,256,256,256,257,257,257,257,257,257,258,258,258,258,258,259,259,259,259,259,259,260,260,260,260,260,261,261,261,261,261,261,262,262,262,262,262,262,262,262,263,263,263,263,263,263,263,263,263,263,263,264,264,264,264,264,264,264,265,265,265,265,265,265,266,266,266,266,266,266,266,266,266,266,266,266,266,266,266,266,266,266,266,266,265,265,265,264,264,264,263,263,263,263,262,262,262,261,261,261,261,261,261,261,261,260,260,260,260,260,260,260,260,260,261,261,261,262,262,0,0,265,265,0,0,269,269,269,270,270,270,270,270,270,270,270,270,270,270,270,270,270,270,270,270,270,270,270,270,270,270,270,270,270,270,270,270,270,270,269,269,269,269,269,269,269,269,269,269,270,270,270,270,270,270,270,270,270,270,270,270,269,269,269,269,269,268,268,268,268,268,267,267,267,267,266,266,266,265,265,265,265,265,264,264,264,263,263,262,262,262,261,261,261,261,260,260,260,260,260,260,260,260,260,261,262,262,263,264,264,265,266,266,267,268,268,269,269,269,269,269,269,269,269,269,269,269,269,269,269,269,269,270,271,271,0
234,234,234,234,235,235,235,236,236,236,237,237,237,237,237,238,238,238,238,238,238,238,238,238,238,238,238,238,238,238,0,238,238,238,238,238,238,0,0,0,0,0,0,0,238,238,238,238,238,238,239,239,239,239,239,239,239,239,239,240,240,240,240,240,241,241,241,241,242,242,242,243,243,243,243,243,244,244,244,245,245,245,245,245,246,246,246,247,247,247,248,248,248,248,249,249,249,249,249,249,249,249,250,250,250,250,250,250,250,250,250,250,250,250,249,249,249,249,249,249,249,248,248,248,248,248,248,248,249,249,249,249,249,250,250,250,250,251,251,251,252,252,252,253,253,253,253,253,253,253,254,254,254,254,254,254,254,254,254,254,253,253,253,253,253,253,253,253,253,253,252,252,252,252,251,251,251,251,251,250,250,250,250,250,249,249,249,249,249,249,249,249,249,249,249,249,248,248,248,248,248,248,248,248,248,248,248,248,248,248,248,248,248,248,248,248,248,248,248,248,248,249,249,249,249,250,250,250,250,250,250,250,250,250,249,249,249,248,248,248,248,247,247,247,247,0,246,246,246,246,246,245,245,245,245,246,246,246,246,246,246,246,246,246,246,246,246,247,247,247,247,247,247,247,247,247,247,247,247,247,247,247,247,247,247,248,248,248,248,248,248,249,249,249,249,249,249,249,249,250,250,250,250,250,250,250,250,250,250,250,250,250,250,250,250,250,250,250,250,250,250,250,250,250,250,250,250,250,251,251,251,251,251,251,251,251,251,251,251,251,250,250,250,250,250,250,250,250,250,250,250,250,250,250,250,250,250,251,251,251,251,251,251,251,251,251,251,251,251,251,251,252,252,252,252,252,253,253,253,254,254,254,255,255,255,256,256,256,256,256,256,257,257,257,258,258,258,258,258,259,259,259,259,259,259,260,260,260,260,260,261,261,261,261,261,261,262,262,262,262,262,262,262,262,263,263,263,263,263,263,263,263,263,263,263,264,264,264,264,264,264,264,265,265,265,265,265,265,266,266,266,266,266,266,266,266,266,266,266,267,267,266,266,266,266,266,266,266,265,265,265,264,264,264,264,264,263,263,262,262,262,261,261,261,261,261,261,261,261,260,260,260,260,260,260,261,261,261,261,261,262,262,262,0,0,266,266,0,0,269,269,269,270,270,270,270,270,270,270,270,270,270,270,270,270,270,270,270,270,270,270,270,270,270,270,270,270,270,270,270,270,270,270,269,269,269,269,269,269,269,269,269,269,270,270,270,270,270,270,270,270,270,270,270,270,269,269,269,269,269,268,268,268,268,268,267,267,267,267,266,266,266,265,265,265,264,264,264,264,264,263,263,262,262,262,261,261,261,261,260,260,260,260,260,260,260,260,260,261,262,262,263,264,264,265,266,266,267,268,268,269,269,269,269,269,269,269,269,269,269,269,269,269,269,269,269,270,271,271,272
234,234,235,235,235,235,235,236,236,236,237,237,237,238,238,238,238,238,238,238,238,238,238,238,239,239,239,0,0,0,0,238,238,238,238,238,238,0,0,0,0,0,0,0,238,238,238,238,238,238,239,239,239,239,239,239,239,239,239,240,240,240,240,240,241,241,241,241,242,242,242,243,243,243,243,243,244,244,244,245,245,245,245,245,246,246,246,247,247,247,248,248,248,248,249,249,249,249,249,249,249,249,249,249,249,249,249,250,249,249,249,249,249,249,249,249,249,249,249,248,248,248,248,248,248,248,248,248,249,249,249,249,249,250,250,250,250,251,251,251,252,252,252,253,253,253,253,253,253,253,254,254,254,254,254,254,254,254,254,254,253,253,253,253,253,253,253,253,253,253,253,252,252,252,252,252,251,251,251,251,251,250,250,250,250,250,249,249,249,249,249,249,249,249,249,249,249,248,248,248,248,248,248,248,248,248,248,248,248,248,248,248,248,248,248,248,248,248,248,248,248,249,249,249,249,249,249,250,250,249,249,249,249,249,249,249,248,248,248,247,247,247,246,246,246,246,245,245,245,245,245,245,245,245,245,246,246,246,246,246,246,246,246,246,246,246,246,247,247,247,247,247,247,247,247,247,247,247,247,247,247,247,247,247,247,248,248,248,248,248,248,249,249,249,249,249,249,249,249,250,250,250,250,250,250,250,250,250,250,250,250,250,250,250,250,250,250,250,250,250,250,250,250,250,250,250,250,250,251,251,251,251,251,251,251,251,251,251,251,251,250,250,250,250,250,250,250,250,250,250,250,250,250,250,250,250,250,251,251,251,251,251,251,251,251,251,251,251,251,251,251,252,252,252,252,252,253,253,253,254,254,254,255,255,255,256,256,256,256,256,256,257,257,257,257,257,258,258,258,258,258,259,259,259,259,260,260,260,260,260,260,260,261,261,261,261,261,261,262,262,262,262,262,262,262,262,262,262,262,262,262,263,263,263,263,263,263,263,264,264,264,264,264,265,265,265,265,265,265,266,266,266,266,266,266,266,266,266,266,267,267,266,266,266,266,266,266,266,265,265,265,264,264,264,264,264,263,263,262,262,262,261,261,261,261,261,261,261,261,260,260,260,260,260,260,261,261,261,261,261,262,262,262,0,0,266,266,0,0,269,269,269,269,270,270,270,270,270,270,270,270,270,270,270,270,270,270,270,270,270,270,270,269,269,269,269,270,270,270,270,270,269,269,269,269,269,269,269,269,269,269,269,270,270,270,270,270,270,270,270,270,270,270,270,270,270,270,269,269,269,269,269,269,269,268,268,268,267,267,267,266,266,265,265,265,264,264,264,264,264,263,263,262,262,262,261,261,261,261,260,260,260,260,260,260,260,260,260,0,264,263,263,265,265,266,267,267,267,268,268,269,269,269,269,269,269,269,269,269,269,269,269,269,269,269,269,270,271,271,272
234,234,235,235,235,235,235,236,236,236,237,237,237,238,238,238,238,238,238,238,238,238,238,238,239,239,239,239,239,239,239,239,239,238,238,238,238,239,0,0,0,0,0,0,239,239,239,239,239,239,239,239,239,239,239,239,239,240,240,240,240,240,240,240,241,241,241,241,242,242,242,243,243,243,243,243,244,244,244,245,245,245,245,245,246,246,246,247,247,247,248,248,248,248,249,249,249,249,249,249,249,249,249,249,249,249,249,249,249,249,249,249,249,249,249,249,248,248,248,248,248,248,248,248,248,248,249,249,249,249,249,249,249,250,250,250,251,251,251,251,252,252,252,253,253,253,253,253,254,254,254,254,254,254,254,254,254,254,254,254,254,253,253,253,253,253,253,253,253,253,253,253,253,252,252,252,252,252,251,251,251,250,250,250,250,250,250,250,250,249,249,249,249,249,249,249,249,249,249,249,249,248,248,248,248,248,248,248,248,248,248,248,248,248,248,248,248,248,248,248,248,249,249,249,249,249,249,250,250,249,249,249,249,249,249,249,248,248,248,247,247,247,246,246,246,246,245,245,245,245,245,245,245,245,245,245,246,246,246,246,246,246,246,246,246,246,246,246,246,246,246,247,247,247,247,247,247,247,247,247,247,247,247,247,247,248,248,248,248,248,248,248,248,249,249,249,249,249,249,249,249,249,249,249,249,249,249,249,249,249,249,249,249,249,249,249,249,249,250,250,250,250,250,250,250,250,250,250,250,250,250,250,250,250,250,250,250,250,250,250,250,250,250,250,250,250,250,250,250,250,250,250,250,250,250,250,250,250,250,250,250,250,250,250,250,250,251,251,251,251,251,251,251,252,252,252,253,253,253,254,254,254,254,255,255,255,256,256,256,256,256,256,256,257,257,257,257,258,258,258,258,259,259,259,259,260,260,260,260,260,260,260,261,261,261,261,261,261,261,262,262,262,262,262,262,262,262,262,262,262,262,262,262,262,263,263,263,263,263,263,264,264,264,264,264,265,265,265,265,266,266,266,266,266,266,266,266,266,266,266,266,267,267,267,266,266,266,266,266,265,265,265,265,264,264,264,263,263,263,262,262,262,262,261,261,261,261,261,261,260,260,260,260,260,260,261,261,261,261,261,262,263,263,0,0,266,266,0,0,269,269,269,269,270,270,270,270,270,270,270,270,270,270,270,270,270,270,270,270,270,270,270,269,269,269,269,270,270,270,270,270,269,269,269,269,269,269,269,269,270,270,270,270,270,270,270,270,270,270,270,270,270,270,270,270,270,270,270,270,269,269,269,269,269,268,268,268,267,267,267,266,266,266,266,265,264,264,264,264,264,263,263,262,262,262,261,261,261,261,261,261,261,261,0,0,0,0,0,0,264,264,264,265,265,266,267,267,267,268,268,269,269,269,269,269,269,269,269,269,269,269,269,269,269,269,269,270,271,271,272
234,234,235,235,235,236,236,236,236,236,237,237,237,238,238,238,238,238,238,239,239,239,239,239,239,239,239,239,239,239,239,239,239,239,239,239,239,239,0,0,0,0,0,0,239,239,239,239,239,239,239,239,239,239,239,239,240,240,240,240,240,240,240,240,241,241,241,242,242,242,242,243,243,243,243,243,244,244,244,0,0,0,246,246,246,247,247,247,247,247,248,248,248,248,249,249,249,249,249,249,249,249,249,249,249,249,249,249,249,249,249,249,249,249,249,249,248,248,248,248,248,248,248,248,248,248,249,249,249,249,249,249,249,250,250,250,251,251,251,251,252,252,252,253,253,253,253,253,254,254,254,254,254,254,254,254,254,254,254,254,254,253,253,253,253,253,253,253,253,253,253,253,253,252,252,252,252,252,251,251,251,250,250,250,250,250,250,250,250,249,249,249,249,249,249,249,249,249,249,249,249,248,248,248,248,248,248,248,248,248,248,248,248,248,248,248,248,248,248,248,248,249,249,249,249,249,249,249,249,249,249,249,249,249,248,248,248,247,247,246,246,246,246,246,245,245,245,245,245,245,245,245,245,245,245,245,245,245,245,245,245,246,246,246,246,246,246,246,246,246,246,246,247,247,247,247,247,247,247,247,247,247,247,247,247,248,248,248,248,248,248,248,248,248,249,249,249,249,249,249,249,249,249,249,249,249,249,249,249,249,249,249,249,249,249,249,249,249,249,249,249,249,249,250,250,250,250,250,250,250,250,250,250,250,250,250,250,250,250,250,250,250,250,250,250,250,250,250,250,250,250,250,250,250,250,250,250,250,250,250,250,250,250,250,250,250,251,251,251,251,251,251,251,252,252,252,253,253,253,254,254,254,254,255,255,255,256,256,256,256,256,256,256,257,257,257,257,258,258,258,258,259,259,259,259,260,260,260,260,260,260,260,261,261,261,261,261,261,261,262,262,262,262,262,262,262,262,262,262,262,262,262,262,262,263,263,263,263,263,263,264,264,264,264,264,265,265,265,265,266,266,266,266,266,266,266,266,266,266,266,266,267,267,267,266,266,266,266,266,266,266,265,265,265,265,0,0,0,263,262,262,262,262,261,261,261,261,261,261,260,260,260,260,260,260,261,261,261,261,261,262,263,263,264,265,265,266,268,268,269,269,269,269,269,269,269,270,270,270,270,270,270,270,269,269,269,269,269,269,269,269,269,269,269,269,269,269,269,269,269,269,269,269,269,269,269,269,269,269,269,269,269,270,270,270,270,270,270,270,270,270,270,270,270,270,270,270,270,270,269,269,269,269,269,268,268,268,267,267,267,266,266,266,266,265,264,264,264,264,263,263,263,262,262,262,261,261,261,261,261,261,261,261,0,0,0,262,262,262,263,263,264,265,265,266,267,267,268,268,268,269,269,269,269,269,269,269,269,269,269,269,269,269,269,269,269,270,271,271,272
234,234,235,235,235,236,236,236,236,236,237,237,237,238,238,238,238,238,238,239,239,239,239,239,239,239,239,239,239,239,239,239,239,239,239,239,239,239,239,239,239,239,239,239,239,239,239,239,239,239,239,239,239,239,239,239,240,240,240,240,240,240,240,240,241,241,241,242,242,242,242,243,243,243,243,243,244,244,244,245,0,0,246,246,246,247,247,247,247,247,248,248,248,248,249,249,249,249,249,249,249,249,249,249,249,249,249,249,249,249,249,249,248,248,248,248,248,248,248,248,248,248,248,248,248,248,249,249,249,249,249,250,250,250,250,250,251,251,251,252,252,252,253,253,253,253,254,254,254,254,254,254,254,254,254,254,254,254,254,254,254,253,253,253,253,253,253,253,253,253,253,253,253,253,252,252,252,252,251,251,251,251,251,250,250,250,250,250,250,250,250,250,249,249,249,249,249,249,249,249,249,248,248,248,248,248,248,248,248,248,248,248,248,248,248,248,248,248,248,248,248,249,249,249,249,249,249,249,249,249,249,249,249,249,248,248,248,247,247,246,246,246,246,246,245,245,245,245,245,245,245,245,245,245,245,245,245,245,245,245,245,246,246,246,246,246,246,246,246,246,246,246,247,247,247,247,247,247,247,247,247,247,247,247,247,248,248,248,248,248,248,248,248,248,249,249,249,249,249,249,249,249,249,249,249,249,249,249,249,249,249,249,249,249,249,249,249,249,249,249,249,249,249,250,250,250,250,250,250,250,250,250,250,250,250,250,250,250,250,250,250,250,250,250,250,250,250,250,250,250,250,250,250,250,250,250,250,250,250,250,250,250,250,250,250,250,250,250,250,250,251,251,251,251,252,252,252,253,253,253,254,254,254,254,254,255,255,255,256,256,256,256,256,256,257,257,257,258,258,258,258,258,259,259,259,260,260,260,260,260,260,260,261,261,261,261,261,261,261,261,261,261,261,261,262,262,262,262,262,262,262,262,262,262,262,262,262,263,263,263,264,264,264,264,264,265,265,265,265,265,265,265,265,266,266,266,266,266,266,266,266,267,267,267,266,266,266,266,266,266,266,265,265,265,265,0,0,0,263,263,263,262,262,262,261,261,261,261,261,261,261,261,261,261,261,261,261,261,262,262,262,263,263,264,265,265,266,267,267,268,268,268,269,269,269,269,269,269,269,269,269,269,269,269,269,269,269,269,269,269,269,269,269,269,269,269,269,269,269,269,269,269,269,269,269,269,269,269,269,269,269,269,270,270,270,270,270,270,270,270,270,270,270,270,270,270,270,270,270,269,269,269,269,269,268,268,268,267,267,267,266,266,266,266,265,265,265,264,264,263,263,263,262,262,262,262,262,261,261,261,261,261,261,0,0,0,262,262,262,263,263,265,267,267,267,268,268,268,269,269,269,269,269,269,269,269,269,269,269,269,269,269,269,269,269,269,270,271,271,272
234,234,235,235,235,236,236,236,237,237,237,237,237,238,238,238,238,238,0,0,239,239,239,239,239,239,239,239,239,239,239,239,239,239,239,239,239,239,239,239,239,239,239,239,239,239,239,239,239,239,239,239,239,240,240,240,240,240,240,240,241,241,241,241,241,241,241,242,242,242,243,243,243,243,243,243,244,244,244,245,0,0,0,0,247,247,247,247,248,248,248,248,248,249,249,249,249,249,249,249,249,249,249,249,249,249,249,249,249,249,249,249,248,248,248,248,248,248,248,248,248,248,248,248,248,248,249,249,249,249,249,250,250,250,251,251,251,251,251,252,252,252,253,253,253,253,254,254,254,254,254,254,254,254,254,254,254,254,254,254,254,253,253,253,253,253,253,253,253,253,253,253,253,253,252,252,252,252,252,252,252,251,251,251,251,251,250,250,250,250,250,250,250,250,250,250,249,249,249,249,249,249,248,248,248,248,248,248,248,248,248,248,248,248,248,248,248,248,248,248,248,249,249,249,249,249,249,249,249,248,248,248,248,248,247,247,247,247,246,246,246,245,245,245,245,245,245,245,245,245,245,245,245,245,245,245,245,245,245,245,245,245,245,246,246,246,246,246,246,246,246,246,247,247,247,247,247,247,247,247,247,247,247,247,247,248,248,248,248,248,248,248,248,248,248,248,248,248,248,248,248,248,248,248,248,248,248,248,248,248,248,248,248,248,248,248,248,249,249,249,249,249,249,249,249,249,250,250,250,250,250,250,250,250,250,250,250,250,250,250,250,250,250,250,250,250,250,250,250,250,250,250,250,250,250,250,250,250,250,250,250,250,250,250,250,250,250,250,250,250,250,251,251,251,251,251,252,252,252,253,253,253,254,254,254,254,254,255,255,255,256,256,256,256,256,256,257,257,257,258,258,258,259,259,259,259,259,260,260,260,260,261,261,261,261,261,261,261,261,261,261,261,261,261,261,261,261,262,262,262,262,262,262,262,262,262,262,263,263,263,264,264,264,264,264,265,265,265,265,265,265,265,265,266,266,266,266,266,266,266,266,267,267,267,267,267,266,266,266,266,266,265,265,265,265,0,0,0,0,263,263,262,262,262,262,262,262,262,261,261,261,261,261,261,261,261,261,261,262,262,262,263,263,264,265,265,266,267,267,268,268,268,269,269,269,269,269,269,269,269,269,269,269,269,269,269,269,269,269,269,269,269,269,269,269,269,269,269,269,269,269,269,269,269,269,269,269,269,269,269,269,269,270,270,270,270,270,270,270,270,270,270,270,270,270,270,270,270,270,269,269,269,269,269,268,268,268,267,267,267,266,266,266,266,265,265,265,264,264,263,263,263,262,262,262,262,262,261,261,261,261,261,261,261,261,261,262,262,262,263,263,265,267,267,267,268,268,268,269,269,269,269,269,269,269,269,269,269,269,269,269,269,269,269,269,269,270,271,271,272
234,235,235,235,235,236,236,236,237,237,237,237,237,238,238,238,238,238,0,0,239,239,239,239,239,239,239,239,239,239,239,239,239,239,239,239,239,239,239,239,239,239,239,239,239,239,239,239,239,240,240,240,240,240,240,240,240,240,240,241,241,241,241,242,242,242,242,242,243,243,243,243,243,243,244,244,244,244,244,245,245,245,0,0,247,247,247,247,248,248,248,248,248,249,249,249,249,249,249,249,249,249,249,249,248,248,248,248,248,248,248,248,248,248,248,248,248,248,248,248,248,248,248,248,248,248,249,249,249,249,249,250,250,250,251,251,251,251,251,252,252,252,253,253,253,253,254,254,254,254,254,254,254,254,254,254,254,254,253,253,253,253,253,253,253,253,253,253,253,253,253,253,253,253,252,252,252,252,252,252,252,251,251,251,251,251,250,250,250,250,250,250,250,250,250,250,249,249,249,249,249,249,248,248,248,248,248,248,248,248,248,248,248,248,248,248,248,248,248,248,248,248,249,249,249,248,248,248,248,248,248,247,247,247,247,247,246,246,246,246,246,245,245,245,245,245,245,245,245,245,245,245,245,245,245,245,245,245,245,245,245,245,245,246,246,246,246,246,246,246,246,246,247,247,247,247,247,247,247,247,247,247,247,247,247,248,248,248,248,248,248,248,248,248,248,248,248,248,248,248,248,248,248,248,248,248,248,248,248,248,248,248,248,248,248,248,248,249,249,249,249,249,249,249,249,249,250,250,250,250,250,250,250,250,250,250,250,250,250,250,250,250,250,250,250,250,250,250,250,250,250,250,250,250,250,250,250,250,250,250,250,250,250,250,250,250,250,250,250,250,250,251,251,251,251,251,252,252,252,253,253,253,254,254,254,254,254,255,255,255,256,256,256,256,256,256,257,257,257,258,258,258,259,259,259,259,259,260,260,260,260,261,261,261,261,261,261,261,261,261,261,261,261,261,261,261,261,262,262,262,262,262,262,262,262,262,262,263,263,263,263,263,264,264,264,265,265,265,265,265,265,265,265,265,266,266,266,266,266,266,266,266,267,267,267,267,266,266,266,266,266,265,265,265,265,0,0,0,0,263,263,262,262,262,262,262,262,262,261,261,261,261,261,261,261,261,261,261,262,262,262,263,263,264,265,265,266,267,267,267,268,268,268,268,268,269,269,269,269,269,269,269,269,269,269,269,269,269,269,269,269,269,269,269,269,269,269,269,269,269,269,269,269,269,269,269,269,269,269,269,269,269,270,270,270,270,270,270,270,270,270,270,270,270,270,270,270,270,270,269,269,269,269,268,268,268,268,267,267,267,266,266,266,266,265,265,265,264,264,264,263,263,262,262,262,262,262,261,261,261,261,261,261,261,261,261,262,263,263,264,0,0,268,268,268,268,269,269,269,269,269,269,269,269,269,269,269,269,269,269,269,269,269,269,269,269,270,271,271,272
234,235,235,235,235,236,236,236,237,237,237,237,237,238,238,238,238,238,239,239,239,239,239,239,239,239,239,239,239,239,239,239,239,239,239,239,239,239,239,239,239,239,239,239,239,239,239,239,239,240,240,240,240,240,240,240,240,240,240,241,241,241,241,242,242,242,242,242,243,243,243,243,243,243,244,244,244,0,245,245,245,245,0,0,247,247,247,247,248,248,248,248,248,249,249,249,248,248,248,248,248,248,248,248,248,248,248,248,248,248,248,248,248,248,248,248,248,248,248,248,248,248,248,248,248,248,249,249,249,250,250,250,250,250,251,251,251,251,251,252,252,252,252,253,253,253,253,253,253,253,254,254,254,253,253,253,253,253,253,253,253,253,253,253,253,253,253,253,253,253,253,253,253,253,253,253,252,252,252,252,252,251,251,251,251,251,251,251,251,250,250,250,250,250,250,250,249,249,249,249,249,249,248,248,248,248,248,248,248,248,248,248,248,248,248,248,248,248,248,248,248,248,249,249,249,248,248,248,248,248,248,247,247,247,247,247,246,246,246,246,0,245,245,245,245,245,245,245,245,245,245,245,245,245,245,245,245,245,245,245,245,245,245,246,246,246,246,246,246,246,246,246,247,247,247,247,247,247,247,247,247,247,247,247,247,248,248,248,248,248,248,248,248,248,248,248,248,248,248,248,248,248,248,248,248,248,248,248,248,248,248,248,248,248,248,248,248,248,248,248,249,249,249,249,249,249,249,249,249,249,250,250,250,250,250,250,250,250,250,250,250,249,249,249,249,249,249,249,249,249,249,249,249,249,249,249,249,249,249,249,249,249,250,250,250,250,250,250,250,250,250,250,250,251,251,251,252,252,252,252,253,253,253,253,254,254,254,254,255,255,255,255,255,256,256,256,256,256,257,257,257,258,258,258,259,259,259,260,260,260,260,260,260,261,261,261,261,261,261,261,261,261,261,261,261,261,261,261,261,261,261,262,262,262,262,262,262,262,262,263,263,263,264,264,264,264,265,265,265,265,265,265,265,265,265,265,266,266,266,266,266,266,267,267,267,0,0,0,0,0,0,266,266,265,265,0,0,0,0,263,263,263,263,262,262,262,262,262,262,261,261,261,261,261,261,261,261,261,262,262,263,263,263,264,265,265,266,266,266,267,267,267,268,268,268,268,268,268,268,268,269,269,269,269,269,269,269,269,269,269,269,269,269,269,269,269,269,269,269,269,269,269,269,269,269,269,269,269,269,269,269,269,270,270,270,270,270,270,270,270,270,270,270,270,270,270,270,270,270,269,269,269,269,268,268,268,268,267,267,267,266,266,266,266,265,265,265,264,264,264,263,263,262,262,262,262,262,261,261,261,261,261,261,262,262,262,262,264,264,0,0,0,0,0,269,269,269,269,269,269,269,269,269,269,269,269,269,269,269,269,269,269,269,269,269,269,270,271,271,272
234,235,235,235,236,236,236,236,237,237,237,237,237,238,238,238,238,238,238,239,239,239,239,239,239,239,239,240,239,239,239,239,239,239,239,239,239,239,239,239,239,239,239,239,239,239,239,239,240,240,240,240,240,240,241,241,241,241,241,241,241,241,0,0,242,242,243,243,243,243,243,243,243,244,244,244,244,0,245,245,245,245,0,0,247,247,247,247,0,0,249,249,249,249,249,249,248,248,248,248,248,248,248,248,248,248,248,248,248,248,248,248,248,248,248,248,248,248,248,248,248,248,248,248,248,249,249,249,249,250,250,250,251,251,251,251,251,251,251,252,252,252,252,253,253,253,253,253,253,253,254,254,254,253,253,253,253,253,253,253,253,253,253,253,253,253,253,253,253,253,253,253,253,253,253,253,252,252,252,252,252,251,251,251,251,251,251,251,251,250,250,250,250,250,250,250,249,249,249,249,249,249,248,248,248,248,248,248,248,248,248,248,248,248,248,248,248,248,248,248,248,248,248,248,248,248,248,248,248,247,247,247,247,246,246,246,246,246,245,245,0,245,245,245,245,245,245,245,245,245,245,245,245,245,245,245,245,245,245,245,245,245,245,245,245,245,246,246,246,246,246,246,247,247,247,247,247,247,247,247,247,247,247,247,247,248,248,248,248,248,248,248,248,248,248,248,248,248,248,248,247,247,247,247,247,247,247,247,247,247,247,247,247,247,248,248,248,248,248,248,248,248,248,249,249,249,249,249,249,249,249,249,249,249,249,249,249,249,249,249,249,249,249,249,249,249,249,249,249,249,249,249,249,249,249,249,249,249,249,249,249,249,249,249,249,249,249,249,250,250,250,250,250,250,251,251,251,252,252,252,253,253,253,253,254,254,254,254,255,255,255,255,255,256,256,256,256,256,257,257,257,258,258,258,259,259,259,260,260,260,260,260,260,261,261,261,261,261,261,261,261,261,261,261,261,261,261,261,261,261,261,262,262,262,262,262,262,262,262,263,263,263,264,264,264,264,265,265,265,265,265,265,265,265,265,265,266,266,266,266,266,266,267,267,0,0,0,0,0,0,0,266,266,266,266,0,0,0,0,264,264,263,263,263,262,262,262,262,262,262,262,261,261,261,261,261,261,262,262,262,263,264,264,264,265,265,266,266,266,267,267,267,268,268,268,268,268,268,268,268,268,269,269,269,269,269,269,269,269,269,269,269,269,269,269,269,269,269,269,269,269,269,269,269,269,269,269,269,269,269,269,269,270,270,270,270,270,270,270,270,270,270,270,270,270,270,270,270,270,269,269,269,269,268,268,268,268,267,267,267,266,266,266,266,265,265,265,264,264,263,263,263,262,262,262,262,262,261,261,261,261,261,261,262,262,262,262,264,264,0,0,0,0,0,269,269,269,269,269,269,269,269,269,269,269,269,269,269,269,269,269,269,269,269,269,269,270,271,271,272
234,235,235,235,236,236,236,236,237,237,237,237,237,238,238,238,238,238,238,239,239,239,239,239,239,239,239,240,240,239,239,239,239,239,239,239,239,239,239,239,239,239,239,239,239,239,239,239,240,240,240,240,240,240,241,241,241,241,241,241,241,241,242,242,242,242,243,243,243,243,243,243,243,244,244,244,244,244,244,245,245,245,246,246,246,246,246,247,248,248,248,248,248,248,248,248,248,248,248,248,248,248,248,248,248,248,248,248,247,247,247,247,247,247,247,247,247,247,247,247,248,248,248,248,248,249,249,249,249,250,250,250,251,251,251,251,251,251,251,252,252,252,252,253,253,253,253,253,253,253,253,253,253,253,253,253,253,253,253,253,253,253,253,253,253,253,253,253,253,253,253,253,253,253,253,253,252,252,252,252,252,252,251,251,251,251,251,251,251,251,251,250,250,250,250,250,250,249,249,249,249,249,248,248,248,248,248,248,248,247,247,247,247,248,248,248,248,248,248,248,248,248,248,248,248,247,247,247,247,247,247,246,246,246,246,245,245,245,245,245,245,245,245,245,245,245,245,245,245,245,245,245,245,245,245,245,245,245,245,245,245,245,245,245,245,245,246,246,246,246,246,246,247,247,247,247,247,247,247,247,247,247,247,247,247,248,248,248,248,248,248,248,248,248,248,248,248,248,248,248,247,247,247,247,247,247,247,247,247,247,247,247,247,247,248,248,248,248,248,248,248,248,248,249,249,249,249,249,249,249,249,249,249,249,249,249,249,249,249,249,249,249,249,249,249,249,249,249,249,249,249,249,249,249,249,249,249,249,249,249,249,249,249,249,249,249,249,249,250,250,250,250,250,250,251,251,251,252,252,252,253,253,253,253,253,254,254,254,254,254,255,255,255,255,256,256,256,256,257,257,257,258,258,258,259,259,259,260,260,260,260,260,260,260,260,260,260,260,261,261,261,261,261,261,261,261,261,261,261,261,261,261,261,261,262,262,262,262,262,263,263,263,263,264,264,264,264,264,265,265,265,265,265,265,265,265,266,266,266,266,266,266,267,267,267,0,0,0,0,267,267,266,266,266,265,265,265,264,264,264,264,263,263,263,262,262,262,262,262,262,262,261,261,261,261,261,261,262,262,262,263,264,264,264,265,265,265,266,266,267,267,267,267,267,267,267,267,268,268,268,268,268,268,268,268,268,268,268,268,268,268,268,268,268,268,268,269,269,269,269,269,269,269,269,269,269,269,269,269,269,270,270,270,270,270,270,270,270,270,270,270,270,270,270,270,270,270,270,270,269,269,269,269,268,268,268,268,267,267,267,266,266,266,266,265,265,265,264,264,263,263,263,262,262,262,262,262,262,262,262,262,262,262,262,262,262,263,264,264,0,0,0,0,0,269,269,270,270,270,270,270,270,270,270,270,269,269,269,269,269,269,269,269,269,269,269,270,271,271,0
234,235,235,235,236,236,236,236,237,237,237,237,237,238,238,238,238,238,238,239,239,239,239,239,239,239,239,240,240,240,240,240,0,0,0,240,240,240,240,239,239,239,239,240,240,240,240,240,240,240,240,240,241,241,241,241,241,241,241,242,242,242,242,242,242,243,243,243,243,243,243,244,244,244,244,244,244,244,244,245,245,245,246,246,246,246,246,0,248,248,248,248,248,248,248,248,248,248,248,248,248,248,248,247,247,247,247,247,247,247,247,247,247,247,247,247,247,247,247,247,248,248,248,248,248,249,249,249,249,250,250,250,251,251,251,251,251,251,251,252,252,252,252,253,253,253,253,253,253,253,253,253,253,253,253,253,253,253,253,253,253,253,253,253,253,253,253,253,253,253,253,253,253,253,253,253,253,252,252,252,252,252,252,252,252,252,251,251,251,251,251,251,250,250,250,250,250,249,249,249,249,249,248,248,248,248,248,248,248,247,247,247,247,248,248,248,248,248,248,248,248,248,248,248,248,247,247,247,247,247,247,246,246,246,246,245,245,245,245,245,245,245,245,245,245,245,245,245,245,245,245,245,245,245,245,245,245,245,245,245,245,245,245,245,245,245,246,246,246,246,246,246,247,247,247,247,247,247,247,247,247,247,247,247,247,248,247,247,247,247,247,247,247,247,247,247,247,247,247,247,247,247,247,247,247,247,247,247,247,247,247,247,247,247,247,247,247,247,247,248,248,248,248,248,248,248,248,248,249,249,249,249,249,249,249,249,249,249,249,249,249,249,249,249,249,249,249,249,249,249,249,249,249,249,249,249,249,249,249,249,249,249,249,249,249,249,249,249,249,249,249,250,250,250,251,251,251,251,251,252,252,252,253,253,253,253,253,254,254,254,254,254,254,255,255,255,256,256,256,257,257,257,258,258,258,259,259,259,260,260,260,260,260,260,260,260,260,260,260,261,261,261,261,261,261,261,261,261,261,261,261,261,261,261,261,262,262,262,262,262,263,263,263,264,264,264,264,264,264,265,265,265,265,265,265,265,266,266,266,266,266,266,267,267,267,0,0,267,267,267,267,266,266,266,265,265,265,264,264,264,264,264,263,263,263,263,262,262,262,262,262,262,262,262,262,262,262,262,262,262,263,264,264,264,265,265,265,266,266,267,267,267,267,267,267,267,267,268,268,268,268,268,268,268,268,268,268,268,268,268,268,268,268,268,268,268,269,269,269,269,269,269,269,269,269,269,269,269,269,270,270,270,270,270,270,270,270,270,270,270,270,270,270,270,270,270,270,270,270,269,269,269,269,268,268,268,268,267,267,267,266,266,266,266,265,265,265,264,264,263,263,263,263,263,262,262,262,262,262,262,262,262,262,262,262,262,263,264,264,0,0,0,269,269,269,269,270,270,270,270,270,270,270,270,270,269,269,269,269,269,269,269,269,269,269,269,270,271,271,0
235,235,235,235,236,236,236,237,237,237,237,237,237,238,238,238,238,238,239,239,239,239,239,239,240,240,240,240,240,240,240,240,0,0,0,0,0,240,240,240,240,240,240,240,240,240,240,240,240,240,240,240,241,241,241,241,241,241,241,242,242,242,242,243,243,243,243,243,243,244,244,244,244,244,244,244,244,244,244,245,245,245,0,0,0,0,0,0,0,0,248,248,248,248,248,248,248,248,248,248,248,248,248,247,247,247,247,247,247,247,247,247,247,247,247,247,247,247,247,247,248,248,248,248,248,249,249,249,249,250,250,250,251,251,251,251,251,251,251,251,252,252,252,252,252,253,253,253,253,253,253,253,253,253,253,253,253,253,253,253,253,253,253,253,253,253,253,253,253,253,253,253,253,253,253,253,253,252,252,252,252,252,252,252,252,252,251,251,251,251,251,251,250,250,250,250,250,249,249,249,248,248,248,248,248,248,248,247,247,247,247,247,247,247,247,247,247,247,248,248,247,247,247,247,247,247,246,246,246,246,246,245,245,245,245,245,244,244,244,244,244,244,244,244,244,244,244,244,244,244,244,244,244,245,245,245,245,245,245,245,245,245,245,245,245,245,245,245,246,246,246,246,247,247,247,247,247,247,247,247,247,247,247,247,247,247,247,247,247,247,247,247,247,247,247,247,247,247,247,247,246,246,246,246,246,246,246,246,246,246,246,247,247,247,247,247,247,247,247,247,247,247,248,248,248,248,248,248,248,248,248,248,248,249,249,249,249,249,249,249,249,249,249,249,249,249,249,249,249,249,249,249,249,249,249,249,249,249,249,249,249,249,249,249,249,249,249,249,249,249,249,250,250,250,251,251,251,251,251,252,252,252,253,253,253,253,253,254,254,254,254,254,254,255,255,255,256,256,256,257,257,257,258,258,258,259,259,259,260,260,260,260,260,260,260,260,260,260,260,261,261,261,261,261,261,261,261,261,261,261,261,261,261,261,261,262,262,262,262,262,263,263,263,264,264,264,264,264,264,265,265,265,265,265,265,265,266,266,266,266,266,266,267,267,267,0,0,267,267,267,267,266,266,266,265,265,265,264,264,264,264,264,263,263,263,263,262,262,262,262,262,262,262,262,262,262,262,262,262,262,263,264,264,264,265,265,265,266,266,266,266,266,267,267,267,267,267,267,267,267,267,267,267,267,267,267,268,268,268,268,268,268,268,268,268,268,268,268,268,269,269,269,269,269,269,269,269,269,269,270,270,270,270,270,270,270,270,270,270,270,270,270,270,270,270,270,270,270,270,269,269,269,269,268,268,268,268,267,267,267,266,266,266,265,265,264,264,264,264,263,263,263,263,263,262,262,262,262,262,262,262,262,262,263,263,263,264,265,265,267,268,269,269,269,269,270,270,270,270,270,270,270,270,270,270,270,270,269,269,269,269,269,270,270,270,270,270,271,271,0
235,235,235,235,236,236,236,237,237,237,237,237,237,238,238,238,238,238,239,239,239,239,239,239,240,240,240,240,240,240,240,240,240,0,0,0,0,240,240,240,240,240,240,240,240,240,240,240,240,240,240,240,241,241,241,241,241,241,241,242,242,242,242,243,243,243,243,243,243,244,244,244,244,244,244,244,244,244,244,245,245,245,245,245,0,0,0,0,0,0,248,248,247,247,247,247,247,247,247,247,247,247,247,247,247,247,247,247,247,247,247,247,247,247,247,247,247,247,247,247,248,248,248,248,248,249,249,249,250,250,250,250,251,251,251,251,251,251,251,251,251,251,252,252,252,252,252,252,253,253,253,253,253,253,253,253,253,253,253,253,253,253,253,253,253,253,253,253,253,253,253,253,253,253,253,253,253,253,253,252,252,252,252,252,252,252,252,251,251,251,251,251,251,251,250,250,250,249,249,249,248,248,248,248,248,248,248,247,247,247,247,247,247,247,247,247,247,247,248,248,247,247,247,247,247,247,246,246,246,246,246,245,245,245,245,245,244,244,244,244,244,244,244,244,244,244,244,244,244,244,244,244,244,245,245,245,245,245,245,245,245,245,245,245,245,245,245,245,246,246,246,246,247,247,247,247,247,247,247,247,247,247,247,247,247,247,247,247,247,247,247,247,247,247,247,247,247,247,247,247,246,246,246,246,246,246,246,246,246,246,246,247,247,247,247,247,247,247,247,247,247,247,248,248,248,248,248,248,248,248,248,248,248,248,248,248,248,248,248,248,248,248,248,248,248,248,248,248,248,248,248,248,248,248,248,248,248,248,248,249,249,249,249,249,249,249,249,249,249,249,249,250,250,250,250,250,251,251,251,251,251,252,252,252,252,253,253,253,253,253,254,254,254,254,254,255,255,255,256,256,256,257,257,257,258,258,258,259,259,259,260,260,260,260,260,260,260,260,260,260,260,260,260,260,260,260,260,260,261,261,261,261,261,261,261,262,262,262,262,262,263,263,263,263,263,264,264,264,264,265,265,265,265,265,265,265,265,266,266,266,266,266,267,267,267,267,267,267,267,267,267,267,266,266,266,266,265,265,265,264,264,264,263,263,263,263,263,262,262,262,262,262,262,262,262,262,262,262,263,263,263,264,264,264,265,265,265,265,265,265,266,266,266,266,266,266,266,266,266,266,267,267,267,267,267,267,267,267,267,268,268,268,268,268,268,268,268,268,268,269,269,269,269,269,269,269,269,269,269,270,270,270,270,270,270,270,270,270,271,271,270,270,270,270,270,270,270,270,270,269,269,269,269,268,268,268,268,267,267,267,266,266,266,265,265,264,264,264,264,263,263,263,263,263,262,262,262,262,262,262,262,263,263,263,264,264,265,266,266,267,268,269,269,270,270,270,271,270,270,270,270,270,270,270,270,270,270,270,270,270,270,270,270,270,270,270,270,271,271,0
235,235,236,236,236,236,236,237,237,237,237,238,238,238,238,238,238,238,239,239,239,239,239,239,240,240,240,240,240,240,240,240,240,241,241,241,241,240,240,240,240,240,240,240,240,240,240,240,240,240,240,241,241,241,241,241,241,242,242,242,242,242,242,243,243,243,243,243,243,244,244,244,244,244,244,244,244,244,244,245,245,245,245,245,0,0,0,0,0,0,0,0,247,247,247,247,247,247,247,247,247,247,247,247,247,247,247,247,247,247,247,247,247,247,247,247,247,247,247,247,248,248,248,248,248,249,249,249,250,250,250,250,251,251,251,251,251,251,251,251,251,251,252,252,252,252,252,252,253,253,253,253,253,253,253,253,253,253,253,253,253,253,253,253,253,253,253,253,253,253,253,253,253,253,253,253,253,253,253,253,253,252,252,252,252,252,252,252,252,251,251,251,251,251,250,250,250,249,249,249,248,248,248,248,248,247,247,247,247,247,247,247,247,247,247,247,247,247,247,247,247,247,247,247,247,246,246,246,245,245,245,245,245,244,244,244,244,244,244,244,244,244,244,244,244,244,244,244,244,244,244,244,244,244,244,244,244,245,245,245,245,245,245,245,245,245,245,245,246,246,246,246,246,246,247,247,247,247,247,247,247,247,247,247,247,247,247,247,247,247,247,247,247,247,247,247,247,246,246,246,246,246,246,246,246,246,246,246,246,246,246,246,246,246,246,246,247,247,247,247,247,247,247,248,248,248,248,248,248,248,248,248,248,248,248,248,248,248,248,248,248,248,248,248,248,248,248,248,248,248,248,248,248,248,248,248,248,248,248,248,248,248,249,249,249,249,249,249,249,249,249,249,249,250,250,250,250,250,251,251,251,251,252,252,252,253,253,253,253,253,253,253,254,254,254,254,255,255,255,256,256,256,257,257,258,258,258,259,259,259,259,259,260,260,260,260,260,260,260,260,260,260,260,260,260,260,260,260,261,261,261,261,261,261,261,262,262,262,262,262,263,263,263,263,263,264,264,264,264,265,265,265,265,265,265,265,265,266,266,266,266,266,267,267,267,267,267,267,267,267,267,267,266,266,266,266,265,265,265,264,264,264,264,264,263,263,263,263,263,263,263,262,262,262,262,262,263,263,263,263,263,264,264,264,265,265,265,265,265,265,266,266,266,266,266,266,266,266,266,266,267,267,267,267,267,267,267,267,267,268,268,268,268,268,268,268,268,268,268,269,269,269,269,269,269,269,269,270,270,270,270,270,270,270,270,270,270,270,271,271,270,270,270,270,270,270,270,269,269,269,269,269,268,268,268,267,267,267,267,266,266,266,265,265,265,264,264,264,264,263,263,263,263,263,262,262,262,262,262,262,262,263,263,263,264,264,265,266,266,267,268,269,269,270,270,270,271,270,270,270,270,270,270,270,270,270,270,270,270,270,270,270,270,270,270,270,270,270,270,0
235,235,236,236,236,236,236,237,237,237,237,238,238,238,238,238,238,238,239,239,239,239,240,240,240,240,240,241,241,241,241,241,241,241,241,241,241,241,241,241,241,241,240,240,241,241,241,241,241,241,241,241,241,241,241,242,242,242,242,242,242,242,243,243,243,243,243,243,244,244,244,244,244,244,244,244,244,244,244,245,245,245,245,245,245,0,0,0,0,0,0,0,247,247,247,247,247,247,247,247,247,247,247,247,247,247,247,247,247,247,247,247,247,247,247,247,247,247,247,247,248,248,248,248,248,249,249,249,250,250,250,250,251,251,251,251,251,251,251,251,251,251,252,252,252,252,252,252,252,252,253,253,253,253,253,253,253,253,253,253,253,253,253,253,253,253,253,253,253,253,253,253,253,253,253,253,253,253,253,253,253,252,252,252,252,252,252,252,252,251,251,251,251,251,250,250,250,249,249,249,248,248,248,248,248,247,247,247,247,247,247,247,247,247,247,247,247,247,247,247,247,247,246,246,246,245,245,245,245,245,245,244,244,244,244,244,244,244,244,244,244,244,244,244,244,244,244,244,244,244,244,244,244,244,244,244,244,244,244,244,245,245,245,245,245,245,245,245,245,246,246,246,246,246,247,247,247,247,247,247,247,247,247,247,247,247,247,247,247,247,247,247,247,247,247,247,247,246,246,246,246,246,246,246,246,246,246,246,246,246,246,246,246,246,246,246,247,247,247,247,247,247,247,248,248,248,248,248,248,248,248,248,248,248,248,248,248,248,248,248,248,248,248,248,248,248,248,248,248,248,248,248,248,248,248,248,248,248,248,248,248,248,249,249,249,249,249,249,249,249,249,249,249,250,250,250,250,250,251,251,251,251,252,252,252,253,253,253,253,253,253,253,254,254,254,254,255,255,255,256,256,256,257,257,258,258,258,259,259,259,259,259,260,260,260,260,260,260,260,260,260,260,260,260,260,260,260,260,260,261,261,261,261,261,261,261,261,262,262,262,262,262,263,263,263,263,264,264,264,264,264,265,265,265,265,265,265,266,266,266,266,266,267,267,267,267,267,267,267,267,267,267,266,266,266,266,265,265,265,264,264,264,264,264,263,263,263,263,263,263,263,262,262,262,262,262,263,263,263,263,263,264,264,264,264,264,265,265,265,265,265,265,265,265,265,266,266,266,266,266,266,266,266,266,266,266,267,267,267,267,267,267,267,267,268,268,268,268,268,269,269,269,269,269,269,269,269,270,270,270,270,270,270,270,270,270,270,270,271,271,270,270,270,270,270,269,269,269,269,269,268,268,268,268,267,267,267,267,267,266,266,266,265,265,265,264,264,264,264,264,263,263,263,263,263,262,262,262,263,263,263,264,264,264,265,266,266,267,268,268,269,270,270,270,271,271,271,271,271,271,270,270,270,270,270,270,270,270,270,270,270,270,270,270,270,270,270,270,270,272
235,235,236,236,236,236,236,237,237,237,237,238,238,238,238,238,238,238,239,239,239,239,240,240,240,240,240,241,241,241,241,241,241,241,241,241,241,241,241,241,241,241,240,240,241,241,241,241,241,241,241,241,241,241,241,242,242,242,242,242,242,242,243,243,243,243,243,243,244,244,244,244,244,244,244,244,244,244,244,245,245,245,245,245,245,245,245,0,0,0,0,0,246,246,246,246,246,246,246,246,246,246,246,246,246,246,246,246,246,247,247,247,247,247,247,247,247,247,247,247,248,248,248,248,248,249,249,249,250,250,250,250,250,250,251,251,251,251,251,251,251,251,251,252,252,252,252,252,252,252,252,253,253,253,253,253,253,253,253,253,253,253,253,253,253,253,253,253,253,253,253,253,253,253,253,253,253,253,253,253,253,252,252,252,252,252,252,252,252,251,251,251,251,251,250,250,250,249,249,249,248,248,248,248,248,247,247,247,247,247,247,247,247,247,247,247,247,247,247,247,247,247,246,246,246,245,245,245,245,245,245,244,244,244,244,244,244,244,244,244,244,244,244,244,244,244,244,244,244,244,244,244,244,244,244,244,244,244,244,244,245,245,245,245,245,245,245,245,245,246,246,246,246,246,247,247,247,247,247,247,247,247,247,247,247,247,247,247,247,247,246,246,246,246,246,246,246,246,246,246,246,246,246,246,246,246,246,246,246,246,246,246,246,246,246,246,246,247,247,247,247,247,247,247,247,247,247,247,248,248,248,248,248,248,248,248,248,248,248,248,248,248,248,248,248,248,248,248,248,248,248,248,248,248,248,248,248,248,248,248,248,248,248,248,248,249,249,249,249,249,249,249,249,249,250,250,250,250,250,251,251,251,252,252,252,252,252,252,253,253,253,253,253,253,253,254,254,254,255,255,255,256,257,257,257,258,258,258,259,259,259,259,259,259,259,260,260,260,260,260,260,260,260,260,260,260,260,260,260,260,260,260,261,261,261,261,261,262,262,262,262,262,263,263,263,263,264,264,264,264,264,264,264,265,265,265,265,266,266,266,266,266,267,267,267,267,267,267,267,267,267,267,267,267,266,266,266,265,265,265,265,265,264,264,264,264,264,263,263,263,263,263,263,263,263,263,263,263,263,264,264,264,264,264,264,264,264,265,265,265,265,265,265,265,265,266,266,266,266,266,266,266,266,266,266,266,267,267,267,267,267,267,267,267,268,268,268,268,268,269,269,269,269,269,269,270,270,270,270,270,270,270,270,271,271,271,271,271,271,271,270,270,270,270,270,269,269,269,269,269,268,268,268,268,267,267,267,267,267,266,266,266,265,265,265,264,264,264,264,264,263,263,263,263,263,263,263,263,263,264,264,264,265,265,266,267,267,268,269,269,270,270,270,271,271,271,271,271,271,271,271,271,271,271,0,270,270,270,270,270,270,270,270,270,270,270,270,270,270,272
0,236,236,236,236,236,236,237,237,237,237,238,238,238,238,238,239,239,239,239,239,240,240,240,0,242,242,241,241,241,241,241,241,242,241,241,241,241,241,241,241,241,241,241,241,241,241,241,241,241,241,241,241,241,242,242,242,242,243,243,243,243,243,243,243,243,244,244,244,244,244,244,244,244,244,244,244,245,245,245,245,245,245,245,245,245,245,0,0,0,0,0,246,246,246,246,246,246,246,246,246,246,246,246,246,246,246,246,246,247,247,247,247,247,247,247,247,247,247,247,248,248,248,248,248,249,249,249,250,250,250,250,250,250,251,251,251,251,251,251,251,251,251,252,252,252,252,252,252,252,252,253,253,253,253,253,253,253,253,253,253,253,253,253,253,253,253,253,253,253,253,253,253,253,253,253,253,253,253,253,253,252,252,252,252,252,252,252,252,251,251,251,251,251,250,250,250,249,249,249,248,248,248,248,248,247,247,247,247,247,247,247,247,247,247,247,247,246,246,246,246,246,246,245,245,245,245,245,244,244,244,244,244,244,244,244,244,244,244,244,244,244,244,244,244,244,244,244,244,244,244,244,244,244,244,244,244,244,244,244,245,245,245,245,245,245,245,245,245,246,246,246,246,246,246,247,247,247,247,247,247,247,247,247,247,247,247,246,246,246,246,246,246,246,246,246,246,246,246,246,246,246,245,245,245,245,245,245,246,246,245,245,246,246,246,246,246,246,246,246,246,246,246,246,247,247,247,247,247,247,247,247,247,247,247,248,248,248,248,248,248,248,248,248,248,248,248,248,248,248,248,248,248,248,248,248,248,248,248,248,248,248,248,248,248,248,248,248,249,249,249,249,249,249,250,250,250,250,250,251,251,251,252,252,252,252,252,252,253,253,253,253,253,253,253,254,254,254,255,255,255,256,257,257,257,258,258,258,259,259,259,259,259,259,259,260,260,260,260,260,260,260,260,260,260,260,260,260,260,260,260,260,261,261,261,261,261,262,262,262,262,262,263,263,263,263,264,264,264,264,264,264,264,265,265,265,265,266,266,266,267,267,267,267,267,267,267,268,268,268,268,267,267,267,267,267,266,265,265,265,265,265,264,264,264,264,264,264,264,264,263,263,263,263,263,263,263,263,264,264,264,264,264,264,264,264,264,265,265,265,265,265,265,265,265,265,265,265,265,265,265,265,266,266,266,266,266,266,266,266,267,267,267,267,267,267,268,268,268,269,269,269,269,269,269,270,270,270,270,270,270,270,270,271,271,271,271,271,271,271,270,270,270,270,270,269,269,269,269,269,268,268,268,268,267,267,267,266,266,266,265,265,265,265,264,264,264,264,264,263,263,263,263,263,263,263,263,263,263,264,264,264,265,265,266,267,267,268,269,269,270,270,270,271,271,271,271,271,271,271,271,271,271,271,271,270,270,270,270,270,270,270,270,270,270,270,270,270,270,272
0,236,236,236,236,236,236,237,237,237,237,238,238,238,239,239,239,239,239,240,240,240,241,0,0,242,242,241,241,241,241,241,241,242,241,241,241,241,241,241,241,241,241,241,241,241,241,241,241,241,241,241,241,241,242,242,242,242,243,243,243,243,243,243,243,243,244,244,244,244,244,244,244,244,244,244,244,245,244,244,245,245,245,245,245,245,245,245,246,246,246,246,246,246,246,246,246,246,246,246,246,246,246,246,246,246,246,246,246,246,246,246,247,247,247,247,247,247,247,247,248,248,248,248,248,249,249,249,249,250,250,250,250,250,251,251,251,251,251,251,251,251,251,251,251,252,252,252,252,252,252,252,252,253,253,253,253,253,253,253,253,253,253,253,253,253,253,253,253,253,253,253,253,253,253,253,253,253,253,253,253,252,252,252,252,252,252,252,252,251,251,251,251,251,250,250,250,249,249,249,248,248,248,248,247,247,247,247,247,247,247,247,247,247,246,246,246,246,246,246,246,246,245,245,245,244,244,244,244,244,244,244,243,243,243,243,243,243,243,243,243,243,243,243,244,244,244,244,244,244,244,244,244,244,244,244,244,244,244,244,245,245,245,245,245,245,245,245,245,246,246,246,246,246,246,247,247,247,247,247,247,247,247,247,247,247,247,246,246,246,246,246,246,246,246,246,246,246,246,246,246,246,245,245,245,245,245,245,246,246,245,245,246,246,246,246,246,246,246,246,246,246,246,246,247,247,247,247,247,247,247,247,247,247,247,248,248,248,248,248,248,248,248,248,248,248,248,248,248,248,248,248,248,248,248,248,248,248,248,248,248,248,248,248,248,248,248,248,249,249,249,249,249,249,250,250,250,250,250,250,250,251,251,251,251,252,252,252,252,252,252,252,253,253,253,253,254,254,254,255,255,256,256,256,257,257,257,258,258,258,259,259,259,259,259,259,259,259,259,259,259,259,259,259,259,259,260,260,260,260,260,260,260,260,261,261,261,261,261,262,262,262,263,263,263,263,263,263,264,264,264,264,264,265,265,265,265,266,266,266,267,267,267,267,267,267,267,268,268,268,268,267,267,267,267,267,266,265,265,265,265,265,264,264,264,264,264,264,264,264,263,263,263,263,263,263,263,263,264,264,264,264,264,264,264,264,264,264,264,265,265,265,265,265,265,265,265,265,265,265,265,265,265,265,265,265,266,266,266,266,266,267,267,267,267,267,268,268,268,269,269,269,269,269,270,270,270,270,270,270,271,271,271,271,271,271,271,271,271,271,270,270,270,270,270,269,269,269,269,268,268,268,267,267,267,267,267,266,266,265,265,265,265,265,264,264,264,263,263,263,263,263,263,263,263,263,263,263,264,264,264,265,266,266,267,268,268,269,270,270,270,271,271,271,271,271,271,271,271,271,271,271,271,271,271,271,271,271,270,270,270,270,270,270,270,270,270,271,272,272
0,236,236,236,236,236,236,237,237,237,237,238,238,238,239,239,239,239,239,240,240,240,241,241,241,242,242,242,242,242,242,242,242,242,242,242,242,242,241,241,241,241,241,241,241,241,241,241,241,242,242,242,242,242,242,242,242,243,243,243,243,243,243,243,243,244,244,244,244,244,244,244,244,244,244,244,244,244,244,244,245,245,245,245,245,245,245,245,245,245,245,245,245,245,245,245,245,245,245,245,245,245,245,245,246,246,246,246,246,246,246,246,247,247,247,247,247,247,247,247,248,248,248,248,248,249,249,249,249,250,250,250,250,250,251,251,251,251,251,251,251,251,251,251,251,252,252,252,252,252,252,252,252,253,253,253,253,253,253,253,253,253,253,253,253,253,253,253,253,253,253,253,253,253,253,253,253,253,253,253,253,252,252,252,252,252,252,252,252,251,251,251,251,251,250,250,250,249,249,249,248,248,248,248,247,247,247,247,247,247,247,247,247,247,246,246,246,246,246,246,246,246,245,245,245,244,244,244,244,244,244,244,243,243,243,243,243,243,243,243,243,243,243,243,244,244,244,244,244,244,244,244,244,244,244,244,244,244,244,244,244,245,245,245,245,245,245,245,245,245,245,246,246,246,246,246,246,246,246,246,246,246,246,246,246,246,246,246,246,246,246,246,246,246,246,246,246,245,245,245,245,245,245,245,245,245,245,245,245,245,245,245,245,245,245,245,245,246,246,246,246,246,246,246,246,247,247,247,247,247,247,247,247,247,247,247,247,247,247,248,248,248,247,247,248,248,248,248,248,248,248,248,248,248,248,248,248,248,248,248,248,248,248,248,248,248,248,248,248,248,249,249,249,249,249,249,249,249,250,250,250,250,251,251,251,251,251,251,251,252,252,252,252,253,253,253,253,253,254,255,255,255,256,256,256,256,257,258,258,258,258,258,259,259,259,259,259,259,259,259,259,259,259,259,259,259,259,259,260,260,260,260,260,260,261,261,261,261,261,262,262,262,263,263,263,263,263,263,264,264,264,264,264,264,265,265,265,266,266,266,267,267,267,267,267,268,268,268,268,268,268,267,267,267,267,267,266,266,266,266,265,265,265,265,265,264,264,264,264,264,264,264,264,264,264,264,264,264,264,264,264,264,264,264,264,264,264,264,264,265,265,265,265,265,265,265,265,265,265,265,265,265,265,265,265,265,266,266,266,266,266,267,267,267,267,267,268,268,268,269,269,269,269,269,270,270,270,270,271,271,271,271,271,271,271,271,271,271,271,271,270,270,270,270,270,269,269,269,269,268,268,268,267,267,267,267,267,266,266,265,265,265,265,265,264,264,264,263,263,263,263,263,263,263,263,263,263,263,264,264,264,265,266,266,267,268,268,269,270,270,270,271,271,271,271,271,271,271,271,271,271,271,271,271,271,271,271,271,270,270,270,270,270,270,270,270,270,271,272,272
